ply
format ascii 1.0
element vertex 1289
property float x
property float y
property float z
property uchar red
property uchar green
property uchar blue
end_header
-0.308814 0.837874 0.004124 255 0 0
-0.050624 0.766889 -0.019863 76 0 153
0.234085 0.868077 -0.030144 255 0 0
0.332795 0.679586 0.076133 255 0 0
0.058089 -0.699620 -0.019863 76 0 153
-0.339148 0.335713 -0.018824 255 0 0
-0.303632 -0.498277 -0.016576 76 0 153
0.327988 -0.333183 -0.005406 255 0 0
-0.172691 0.792576 -0.019863 76 0 153
-0.267948 -0.025993 -0.019863 76 0 153
-0.359292 0.734291 -0.018531 255 0 0
-0.321382 -0.182021 0.036993 255 0 0
0.349056 -0.475444 0.084533 255 0 0
-0.136146 -0.128501 -0.016576 76 0 153
0.277902 0.390770 -0.016576 76 0 153
0.320606 0.440516 0.072967 255 0 0
0.250326 0.061861 -0.016576 76 0 153
0.315393 0.259032 -0.019863 76 0 153
0.047103 0.609152 -0.016576 76 0 153
-0.348032 0.270316 0.005030 255 0 0
-0.315580 -0.182761 -0.016576 76 0 153
-0.296875 -0.580718 -0.016576 76 0 153
-0.373955 0.054080 -0.018531 255 0 0
0.264051 -0.105814 -0.019863 76 0 153
0.020544 0.837874 0.010868 255 0 0
0.349346 -0.116530 -0.018531 255 0 0
0.312326 -0.468367 -0.019863 76 0 153
-0.121524 -0.877421 -0.016576 76 0 153
0.345755 -0.385176 -0.013343 255 0 0
0.327988 0.356975 -0.001516 255 0 0
-0.177884 0.510066 -0.016576 76 0 153
0.319105 0.282400 0.030113 255 0 0
0.083914 -0.841702 -0.019863 76 0 153
-0.306699 -0.005386 -0.019863 76 0 153
-0.365288 0.703994 0.085848 255 0 0
-0.348032 0.458036 0.054827 255 0 0
-0.374422 -0.141436 -0.018531 255 0 0
0.319105 0.112109 0.024426 255 0 0
-0.321382 0.304628 0.057568 255 0 0
0.139601 -0.088427 -0.019863 76 0 153
0.154997 -0.734930 -0.016576 76 0 153
0.235852 -0.163101 -0.016576 76 0 153
0.057380 0.466748 -0.019863 76 0 153
-0.321382 -0.331678 0.037208 255 0 0
-0.345219 -0.111419 -0.027250 255 0 0
-0.321382 0.235661 0.059505 255 0 0
0.126364 -0.454657 -0.019863 76 0 153
0.319105 -0.559452 0.035630 255 0 0
-0.210197 -0.782888 -0.019863 76 0 153
-0.331662 0.496376 -0.018531 76 0 153
0.019127 -0.125912 -0.016576 76 0 153
-0.150648 -0.007318 -0.019863 76 0 153
-0.151167 -0.029459 -0.016576 76 0 153
-0.348032 0.456792 -0.002250 255 0 0
-0.348032 0.401302 0.038365 255 0 0
0.319105 0.734484 0.048077 255 0 0
0.012446 -0.302487 -0.019863 76 0 153
0.352122 0.166394 0.085360 255 0 0
0.345755 0.121742 -0.016084 255 0 0
0.034669 0.821258 0.072967 255 0 0
-0.316392 -0.336415 -0.019863 76 0 153
-0.321382 -0.860818 0.069652 255 0 0
-0.156332 0.820107 -0.006492 255 0 0
0.051265 -0.201255 -0.019863 76 0 153
0.285064 -0.363261 -0.016576 76 0 153
0.089332 -0.764210 -0.016576 76 0 153
0.374305 -0.089954 -0.031412 255 0 0
0.006944 0.603109 -0.019863 76 0 153
0.120706 0.476732 -0.016576 76 0 153
0.344678 0.258049 0.083352 255 0 0
-0.222347 -0.021089 -0.016576 76 0 153
0.174797 -0.688099 -0.019863 76 0 153
-0.321382 0.579920 0.058436 255 0 0
-0.131704 -0.849643 -0.019863 76 0 153
0.113041 0.107666 -0.016576 76 0 153
0.322838 -0.665253 0.072967 255 0 0
-0.378235 0.552918 -0.030092 255 0 0
-0.357548 0.579906 -0.018531 255 0 0
0.210116 0.814970 0.072967 255 0 0
-0.111169 0.825896 -0.018531 255 0 0
-0.128045 0.342161 -0.019863 76 0 153
-0.051402 0.101762 -0.019863 76 0 153
-0.366696 0.083678 -0.018531 255 0 0
-0.321382 0.308076 0.014663 255 0 0
-0.235339 0.129818 -0.019863 76 0 153
0.277454 -0.802674 -0.016576 76 0 153
-0.330265 -0.795748 -0.002331 255 0 0
0.345755 0.492707 0.010596 255 0 0
0.353349 -0.201020 0.085691 255 0 0
0.192165 -0.845243 -0.019863 76 0 153
0.365072 -0.571324 0.072967 255 0 0
0.138127 0.307066 -0.019863 76 0 153
0.229069 -0.877904 -0.016576 76 0 153
-0.185821 0.837874 -0.013745 255 0 0
0.355446 0.378682 0.072967 255 0 0
0.294147 -0.564390 -0.019863 76 0 153
0.319105 -0.662760 0.023909 255 0 0
0.089792 0.837874 0.069587 255 0 0
0.336871 -0.718972 -0.019722 255 0 0
-0.373793 -0.369914 0.074363 255 0 0
0.345755 -0.064787 0.071663 255 0 0
-0.314406 -0.225102 -0.016576 76 0 153
-0.018339 0.628802 -0.016576 76 0 153
0.375335 -0.895670 -0.018531 255 0 0
0.173951 0.271444 -0.019863 76 0 153
-0.373793 -0.724121 0.080758 255 0 0
-0.013051 -0.590748 -0.016576 76 0 153
-0.189669 0.302558 -0.016576 76 0 153
0.175378 -0.900529 -0.016576 76 0 153
-0.029208 0.804283 -0.019863 76 0 153
-0.363505 0.252420 -0.018531 255 0 0
0.319105 -0.759006 0.027781 255 0 0
0.347285 0.653899 0.072967 255 0 0
0.371516 0.794376 0.074123 255 0 0
0.359635 -0.521568 -0.031412 255 0 0
-0.361625 0.854065 -0.018531 255 0 0
0.345755 -0.254076 0.071950 255 0 0
0.345755 -0.744431 0.006163 255 0 0
0.027365 0.155861 -0.019863 76 0 153
0.048702 0.280327 -0.016576 76 0 153
0.262960 -0.090534 -0.002673 153 76 0
0.247074 -0.278117 -0.019863 76 0 153
0.373212 -0.523181 -0.018531 255 0 0
-0.348032 0.681910 0.022576 255 0 0
0.357886 -0.525754 0.072967 255 0 0
0.346681 -0.373251 -0.028258 255 0 0
0.219349 0.824994 0.076390 255 0 0
-0.330265 -0.364671 -0.004076 255 0 0
-0.249777 0.181703 -0.016576 76 0 153
0.345755 0.311214 0.006608 255 0 0
0.159057 0.497728 -0.016576 76 0 153
-0.035303 0.821910 0.072967 255 0 0
0.362690 -0.397694 -0.018531 255 0 0
-0.081440 0.811224 0.070895 255 0 0
-0.204146 0.440383 -0.016576 76 0 153
-0.299405 0.837874 0.028687 255 0 0
0.345755 0.431741 0.071790 255 0 0
-0.080964 -0.743554 -0.016576 76 0 153
-0.223233 0.230127 -0.019863 76 0 153
0.327988 -0.119349 -0.009816 255 0 0
0.358222 0.300042 -0.018531 255 0 0
0.340191 -0.196946 -0.025898 255 0 0
-0.044898 0.811224 0.043865 255 0 0
0.126391 -0.706390 -0.016576 76 0 153
-0.341655 0.407356 -0.025209 255 0 0
-0.372785 -0.416287 0.085848 255 0 0
0.027384 -0.051807 -0.016576 76 0 153
0.339966 0.169941 -0.025725 255 0 0
-0.132647 -0.566134 -0.019863 76 0 153
0.299098 0.031610 -0.019863 76 0 153
-0.270095 -0.666549 -0.019863 76 0 153
0.311045 -0.514611 -0.019863 76 0 153
0.136413 -0.204514 -0.019863 76 0 153
-0.241147 -0.120327 -0.019863 76 0 153
0.359056 -0.496208 0.085848 255 0 0
0.273150 0.611736 -0.016576 76 0 153
0.190272 -0.272128 -0.019863 76 0 153
0.073891 -0.781727 -0.019863 76 0 153
-0.342878 0.170376 0.082252 255 0 0
0.370227 0.656783 0.072967 255 0 0
0.329099 -0.771165 -0.019863 255 0 0
0.128688 -0.817186 -0.016576 76 0 153
-0.361043 -0.074776 0.072967 255 0 0
0.373681 0.506877 -0.031412 255 0 0
-0.008542 0.676540 -0.019863 76 0 153
-0.362313 0.867332 -0.031412 255 0 0
-0.338739 0.837874 0.064762 255 0 0
0.064275 0.169220 -0.019863 76 0 153
-0.256400 0.439952 -0.019863 76 0 153
0.071317 -0.194489 -0.016576 76 0 153
0.319105 0.692512 0.024482 255 0 0
-0.303155 0.629878 -0.019863 76 0 153
0.371516 -0.046295 0.074458 255 0 0
0.044875 -0.119119 -0.019863 76 0 153
0.356270 0.530591 0.085848 255 0 0
0.009321 -0.531511 -0.016576 76 0 153
0.345897 0.724603 0.083681 255 0 0
-0.336309 -0.414059 -0.018531 76 0 153
0.345755 -0.762584 0.020976 255 0 0
-0.249453 0.007372 -0.016576 76 0 153
-0.321382 0.625461 0.027541 255 0 0
-0.352661 -0.197209 -0.029257 255 0 0
-0.322273 -0.569969 -0.019863 76 0 153
0.334831 0.700354 0.079534 255 0 0
0.345755 -0.896522 0.067962 255 0 0
0.177367 0.115490 -0.016576 76 0 153
-0.317510 0.520904 -0.016576 76 0 153
-0.374540 0.296532 -0.018531 255 0 0
-0.348032 0.812952 0.000977 255 0 0
0.319105 -0.504758 0.033382 255 0 0
-0.321382 -0.837630 0.027886 255 0 0
0.152292 0.545114 -0.016576 76 0 153
0.240271 -0.904826 -0.019863 76 0 153
0.345755 -0.079459 0.050497 255 0 0
0.333060 -0.573406 0.076866 255 0 0
0.220690 -0.099522 -0.033766 153 0 76
0.366735 0.595252 0.072967 255 0 0
-0.359026 -0.765249 -0.030974 255 0 0
0.233433 0.115376 -0.016576 76 0 153
0.330985 0.240426 0.072967 255 0 0
-0.350403 0.044045 -0.018531 255 0 0
0.345755 0.738506 0.048646 255 0 0
0.372204 0.854057 -0.018531 255 0 0
0.327988 0.051743 -0.000660 255 0 0
0.327988 0.402434 -0.008640 255 0 0
0.195325 -0.518940 -0.019863 76 0 153
-0.032282 -0.140832 -0.016576 76 0 153
0.158083 -0.032274 -0.019863 76 0 153
0.052144 -0.920395 -0.016576 76 0 153
-0.006973 -0.113946 -0.016576 76 0 153
-0.321382 0.180922 0.019008 255 0 0
0.039328 0.811224 0.042513 255 0 0
0.336892 0.829362 -0.021718 255 0 0
-0.348032 0.353197 0.012711 255 0 0
0.147009 0.172228 -0.016576 76 0 153
-0.332503 -0.731154 0.072967 255 0 0
-0.243771 0.513807 -0.019863 76 0 153
0.352471 -0.680806 0.085454 255 0 0
-0.352665 0.507007 -0.018531 255 0 0
0.241120 -0.762556 -0.016576 76 0 153
-0.083428 -0.663403 -0.016576 76 0 153
0.294572 0.191015 -0.016576 76 0 153
-0.321382 0.212559 0.046761 255 0 0
-0.351967 -0.242997 0.084704 255 0 0
0.345755 0.557046 -0.007109 255 0 0
0.037173 0.477935 -0.016576 76 0 153
0.059030 -0.775635 -0.016576 76 0 153
0.333525 -0.841366 0.077805 255 0 0
0.002433 -0.195621 -0.016576 76 0 153
0.356972 0.278120 0.072967 255 0 0
-0.131163 0.422774 -0.016576 76 0 153
-0.112848 0.103855 -0.019863 76 0 153
0.375958 0.468513 -0.018780 255 0 0
-0.156430 0.862909 -0.031412 255 0 0
-0.302056 -0.313124 -0.016576 76 0 153
0.343136 -0.083793 0.082936 255 0 0
-0.328348 -0.836662 0.072967 255 0 0
0.356707 -0.216038 0.085848 255 0 0
0.344065 -0.260369 -0.027552 255 0 0
0.258592 -0.750857 -0.019863 76 0 153
0.033747 -0.266793 -0.019863 76 0 153
0.087125 -0.521692 -0.019863 76 0 153
-0.030563 0.318345 -0.016576 76 0 153
-0.354471 -0.738401 0.072967 255 0 0
0.361889 -0.729144 0.085848 255 0 0
-0.348032 -0.022141 0.069076 255 0 0
0.067443 -0.305393 -0.016576 76 0 153
0.105387 -0.264502 -0.019863 76 0 153
0.220528 -0.664448 -0.019863 76 0 153
0.319105 -0.189376 0.052790 255 0 0
0.345755 0.319692 0.026790 255 0 0
-0.154474 0.031152 -0.016576 76 0 153
-0.322215 -0.328962 0.012561 255 0 0
-0.228098 0.837874 -0.014073 255 0 0
-0.060548 0.005656 -0.019863 76 0 153
-0.311944 -0.069353 -0.019863 76 0 153
-0.125952 -0.665218 -0.016576 76 0 153
-0.348032 -0.394425 0.016756 255 0 0
0.327988 -0.484262 0.009509 255 0 0
-0.358944 -0.877040 -0.018531 255 0 0
-0.095611 0.734322 -0.016576 76 0 153
-0.124749 -0.919577 -0.016576 76 0 153
-0.159069 0.811224 0.042062 255 0 0
0.223642 0.616564 -0.016576 76 0 153
-0.366426 -0.226818 0.072967 255 0 0
-0.343639 0.536762 0.082458 255 0 0
-0.025148 0.845895 -0.018531 255 0 0
-0.364910 -0.045936 -0.031412 255 0 0
0.274757 -0.259481 -0.019863 76 0 153
0.023943 -0.212986 -0.016576 76 0 153
0.319105 -0.490961 0.031950 255 0 0
-0.374664 -0.834828 -0.018531 255 0 0
-0.163843 0.555001 -0.019863 76 0 153
0.363832 -0.800937 -0.018531 255 0 0
0.363125 0.163671 -0.031412 255 0 0
-0.303608 -0.885136 -0.016576 76 0 153
0.033549 0.705309 -0.019863 76 0 153
0.356231 -0.449300 -0.030834 255 0 0
-0.039508 -0.611711 -0.016576 76 0 153
-0.345591 -0.912719 0.082984 255 0 0
0.337259 -0.864891 -0.021768 76 0 153
-0.209263 0.837874 0.060937 255 0 0
-0.048366 0.829701 -0.022613 255 0 0
0.265956 0.445057 -0.016576 76 0 153
-0.263568 -0.794774 -0.016576 76 0 153
-0.321382 -0.026884 0.041569 255 0 0
0.003707 0.811224 0.060641 255 0 0
-0.128190 0.242263 -0.016576 76 0 153
-0.115771 0.330607 -0.019863 76 0 153
0.309604 0.749300 -0.016576 76 0 153
-0.055575 -0.771518 -0.016576 76 0 153
-0.357489 0.096987 -0.030559 255 0 0
0.042896 0.820107 -0.007546 255 0 0
0.268022 -0.132818 -0.019863 76 0 153
-0.083574 0.246026 -0.019863 76 0 153
-0.368455 -0.130607 -0.031412 255 0 0
-0.306838 0.596681 -0.019863 76 0 153
-0.334707 -0.584782 0.073002 255 0 0
-0.303724 -0.633232 -0.019863 76 0 153
-0.240236 -0.709581 -0.016576 76 0 153
-0.353786 -0.463556 -0.018531 255 0 0
-0.348032 0.830130 0.026570 255 0 0
0.372605 -0.721140 -0.018531 255 0 0
-0.321382 -0.460222 0.040750 255 0 0
0.345755 -0.524563 -0.012155 255 0 0
0.357244 0.325540 0.085848 255 0 0
0.370812 -0.781011 0.085848 255 0 0
-0.332035 0.015770 -0.016576 76 0 153
-0.321382 -0.920447 0.015495 255 0 0
-0.330265 -0.151866 -0.002575 255 0 0
-0.240047 -0.686945 -0.016576 76 0 153
-0.091395 0.868077 -0.027667 255 0 0
-0.358300 0.336829 0.072967 255 0 0
0.354132 -0.653598 -0.018531 255 0 0
0.327988 -0.602774 0.002675 255 0 0
-0.256394 -0.218388 -0.016576 76 0 153
0.369181 0.113923 0.072967 255 0 0
0.360873 -0.855065 0.072967 255 0 0
0.345755 -0.077465 0.071329 255 0 0
0.360901 -0.046016 0.085848 255 0 0
-0.348032 0.769587 0.025129 255 0 0
0.110784 0.837874 0.064563 255 0 0
-0.348032 -0.738497 0.002509 255 0 0
-0.079081 -0.720719 -0.016576 76 0 153
-0.244919 0.847093 -0.018531 255 0 0
-0.149122 0.811224 0.031767 255 0 0
-0.321382 -0.575034 0.034489 255 0 0
-0.348839 0.362559 0.072967 255 0 0
0.345755 0.434370 0.022128 255 0 0
-0.358644 -0.408816 -0.018531 255 0 0
-0.207240 -0.486237 -0.016576 76 0 153
-0.286469 -0.716605 -0.016576 76 0 153
0.345755 -0.848985 0.027344 255 0 0
-0.028677 -0.300368 -0.019863 76 0 153
0.314943 0.633749 -0.019863 76 0 153
-0.114211 -0.426693 -0.019863 76 0 153
-0.119918 0.355198 -0.016576 76 0 153
-0.363079 0.559623 0.072967 255 0 0
-0.321382 -0.305427 0.057671 255 0 0
0.319105 0.305703 0.033039 255 0 0
0.194298 -0.897222 -0.016576 76 0 153
-0.348032 0.003609 0.014252 255 0 0
-0.098234 0.857366 -0.031412 255 0 0
0.083067 -0.707757 -0.019863 76 0 153
-0.331274 0.746919 0.072967 255 0 0
0.371516 -0.653336 0.074141 255 0 0
0.198142 0.660979 -0.019863 76 0 153
-0.255634 0.343355 -0.016576 76 0 153
0.375958 -0.124976 -0.030711 255 0 0
0.355770 -0.476155 -0.030710 255 0 0
0.367033 -0.631548 0.085848 255 0 0
-0.320964 -0.312141 -0.016576 255 0 0
-0.330265 -0.291573 0.005853 255 0 0
0.345755 -0.330224 0.056570 255 0 0
-0.183210 0.862519 -0.031412 255 0 0
0.082781 -0.855464 -0.019863 76 0 153
0.327988 -0.905355 -0.008998 76 0 153
0.336871 -0.171384 -0.019221 255 0 0
-0.360289 -0.617962 0.072967 255 0 0
0.345755 -0.928654 0.003830 255 0 0
-0.377047 0.381079 -0.018531 255 0 0
0.345755 0.048516 -0.015116 255 0 0
-0.214832 0.116987 -0.019863 76 0 153
0.035302 0.680452 -0.019863 76 0 153
-0.348032 0.551937 -0.011004 255 0 0
-0.107942 -0.315791 -0.019863 76 0 153
0.137518 -0.341153 -0.016576 76 0 153
0.269476 -0.845921 -0.019863 76 0 153
0.172468 0.626495 -0.019863 76 0 153
-0.279470 0.837874 0.013025 255 0 0
0.056626 -0.044086 -0.016576 76 0 153
-0.196556 -0.857924 -0.016576 76 0 153
-0.353151 -0.479393 -0.018531 255 0 0
0.345755 -0.165752 0.068476 255 0 0
0.183053 -0.162601 -0.019863 76 0 153
0.199025 -0.506682 -0.016576 76 0 153
0.065282 -0.087551 -0.016576 76 0 153
0.135648 -0.063157 -0.016576 76 0 153
0.042408 0.842956 -0.029379 255 0 0
-0.325284 -0.217295 0.012561 255 0 0
-0.172660 0.322356 -0.016576 76 0 153
0.324572 -0.784480 0.012561 255 0 0
0.195261 -0.950493 -0.019863 76 0 153
0.214071 -0.073541 -0.019863 76 0 153
0.279341 0.070399 -0.019863 76 0 153
0.362272 0.489648 0.085848 255 0 0
0.169841 0.837874 0.069985 255 0 0
-0.211454 -0.901331 -0.016576 76 0 153
0.363404 -0.756526 -0.031412 255 0 0
0.320532 -0.409602 -0.019863 76 0 153
-0.105833 -0.467979 -0.019863 76 0 153
-0.144617 -0.171382 -0.019863 76 0 153
0.327988 -0.449168 -0.009328 255 0 0
-0.330206 -0.548523 0.072967 255 0 0
-0.341898 0.451367 0.081988 255 0 0
0.065220 0.837874 0.070999 255 0 0
-0.369430 0.527299 0.085848 255 0 0
0.185723 0.012157 -0.016576 76 0 153
-0.043795 -0.497186 -0.019863 76 0 153
0.248768 -0.455932 -0.019863 76 0 153
-0.343139 0.510066 0.082323 255 0 0
0.319532 0.488557 0.072967 255 0 0
0.375958 0.090049 -0.019642 255 0 0
0.106564 -0.799709 -0.019863 76 0 153
0.274066 0.676362 -0.016576 76 0 153
0.024092 -0.074992 -0.019863 76 0 153
0.243275 0.824063 0.072967 255 0 0
-0.359411 -0.339635 -0.031078 255 0 0
0.093094 0.357705 -0.016576 76 0 153
0.040327 0.053774 -0.016576 76 0 153
0.357044 -0.418879 0.085848 255 0 0
-0.151180 0.356672 -0.016576 76 0 153
0.267875 0.279503 -0.016576 76 0 153
-0.174661 -0.090360 -0.016576 76 0 153
0.194865 -0.827461 -0.016576 76 0 153
-0.020857 -0.229344 -0.016576 76 0 153
-0.024258 -0.944896 -0.019863 76 0 153
0.097767 0.811224 0.037825 255 0 0
0.272597 0.858834 -0.018531 255 0 0
0.309734 0.820107 0.000778 255 0 0
0.360247 0.361260 0.085848 255 0 0
-0.348032 -0.690436 0.051108 255 0 0
-0.273941 0.005913 -0.016576 76 0 153
-0.371702 0.821428 0.072967 255 0 0
0.350788 -0.533660 0.085000 255 0 0
0.295405 0.528943 -0.019863 76 0 153
-0.103858 -0.659490 -0.016576 76 0 153
-0.127602 0.383036 -0.019863 76 0 153
0.280542 -0.447507 -0.019863 76 0 153
-0.345516 0.378440 0.082964 255 0 0
-0.057070 0.340237 -0.016576 76 0 153
-0.096939 -0.339696 -0.019863 76 0 153
0.033148 -0.495990 -0.016576 76 0 153
0.350647 0.281572 0.084962 255 0 0
0.199020 -0.038312 -0.019863 76 0 153
0.031191 -0.899299 -0.019863 76 0 153
-0.365970 0.615910 0.085848 255 0 0
-0.321382 0.414098 0.043003 255 0 0
0.155219 -0.927367 -0.016576 76 0 153
-0.166371 0.482925 -0.016576 76 0 153
-0.153964 0.336628 -0.016576 76 0 153
0.327988 -0.020898 0.008712 255 0 0
0.327988 0.181293 -0.009412 76 0 153
-0.321382 -0.446241 0.062412 255 0 0
-0.344043 -0.190578 0.082567 255 0 0
0.319105 -0.537040 0.055922 255 0 0
-0.042556 -0.241051 -0.019863 76 0 153
-0.348032 -0.449753 0.001711 255 0 0
0.356631 -0.331365 -0.018531 255 0 0
-0.370848 -0.307636 0.072967 255 0 0
0.097838 0.083868 -0.016576 76 0 153
-0.169221 0.699730 -0.019863 76 0 153
-0.164661 -0.564440 -0.019863 76 0 153
0.037201 0.388335 -0.016576 76 0 153
-0.101875 0.352300 -0.016576 76 0 153
0.199883 0.022591 -0.019863 76 0 153
-0.321382 -0.732972 0.056530 255 0 0
0.359575 -0.157983 -0.031412 255 0 0
-0.166074 0.834924 -0.027212 255 0 0
0.358107 -0.768915 -0.018531 255 0 0
0.319105 0.790235 0.061642 255 0 0
0.051791 0.410176 -0.016576 76 0 153
-0.342695 0.333849 0.082203 255 0 0
-0.373793 0.578687 0.084384 255 0 0
-0.219258 0.373255 -0.016576 76 0 153
0.319105 -0.656407 0.056054 255 0 0
-0.323029 -0.243885 0.072967 255 0 0
-0.348032 -0.750263 -0.015189 255 0 0
0.338622 0.259062 -0.024353 255 0 0
-0.341632 0.598353 -0.025188 255 0 0
0.371516 0.427358 0.074064 255 0 0
-0.373793 0.853038 0.073374 255 0 0
0.255160 -0.519934 -0.019863 76 0 153
0.345755 -0.177468 0.022411 255 0 0
-0.321382 0.281702 0.062891 255 0 0
0.319105 0.491648 0.014691 255 0 0
0.216334 -0.732299 -0.016576 76 0 153
0.345755 0.572843 -0.016293 255 0 0
0.156043 -0.330095 -0.016576 76 0 153
0.017216 0.177769 -0.016576 76 0 153
-0.330420 0.145789 -0.019863 76 0 153
0.168160 -0.720588 -0.016576 76 0 153
-0.348032 0.675640 0.066364 255 0 0
0.087802 0.308358 -0.019863 76 0 153
-0.039502 0.811224 0.015191 255 0 0
0.361816 0.137243 0.072967 255 0 0
0.264547 0.505020 -0.016576 76 0 153
-0.004103 -0.565545 -0.019863 76 0 153
0.239967 -0.648294 -0.016576 76 0 153
-0.030751 0.178024 -0.016576 76 0 153
0.345755 -0.040884 0.038425 255 0 0
-0.268343 0.258187 -0.019863 76 0 153
-0.145710 0.811224 0.059966 255 0 0
0.345755 -0.284574 0.022935 255 0 0
0.345755 0.713247 0.046244 255 0 0
-0.353366 0.436427 -0.018531 255 0 0
-0.330265 -0.631331 0.005637 255 0 0
0.352956 -0.818422 0.072967 255 0 0
0.152853 0.838151 0.083718 255 0 0
0.283464 -0.403875 -0.016576 76 0 153
0.345755 -0.820838 -0.010308 255 0 0
0.360697 -0.501213 -0.031412 255 0 0
0.059547 0.290495 -0.016576 76 0 153
0.355434 -0.613333 0.085848 255 0 0
-0.095977 0.191372 -0.019863 76 0 153
0.327988 -0.582933 -0.008313 255 0 0
0.287662 -0.260918 -0.016576 76 0 153
0.319105 -0.802235 0.031392 255 0 0
0.123429 -0.791049 -0.019863 76 0 153
-0.348032 0.354784 0.000280 255 0 0
-0.348032 -0.504176 0.069446 255 0 0
0.345755 0.390154 0.042197 255 0 0
-0.321382 0.129247 0.017632 255 0 0
0.075897 0.203170 -0.016576 76 0 153
-0.152041 -0.125435 -0.019863 76 0 153
-0.348032 0.596267 0.022082 255 0 0
0.327988 0.746968 -0.000345 255 0 0
-0.265283 -0.309320 -0.016576 76 0 153
-0.321382 0.221025 0.015914 255 0 0
0.209961 -0.377693 -0.016576 76 0 153
0.005684 0.342459 -0.016576 76 0 153
-0.062027 -0.202867 -0.016576 76 0 153
0.312362 -0.238787 -0.016576 76 0 153
0.278350 -0.898734 -0.019863 76 0 153
-0.321382 0.493052 0.021159 255 0 0
0.122790 0.811224 0.061656 255 0 0
-0.348032 -0.668390 0.042035 255 0 0
-0.050931 -0.310099 -0.019863 76 0 153
-0.195650 0.582162 -0.016576 76 0 153
-0.355976 0.667357 0.085786 255 0 0
-0.348032 -0.692805 0.036720 255 0 0
-0.375249 0.227957 -0.031412 255 0 0
-0.144380 -0.243779 -0.016576 76 0 153
0.162394 0.757908 -0.019863 76 0 153
0.167612 -0.817885 -0.016576 76 0 153
-0.068045 0.543285 -0.019863 76 0 153
0.345755 0.246556 0.009991 255 0 0
-0.330265 -0.326487 -0.003636 255 0 0
-0.285696 -0.484666 -0.019863 76 0 153
0.177407 -0.646231 -0.016576 76 0 153
0.040086 -0.466421 -0.016576 76 0 153
-0.372146 0.569724 0.072967 255 0 0
0.018626 0.728443 -0.016576 76 0 153
-0.348032 0.558332 0.043783 255 0 0
0.295693 -0.645190 -0.019863 76 0 153
-0.330265 -0.820038 0.007401 255 0 0
0.345755 -0.384261 0.022672 255 0 0
0.365167 0.839659 -0.031412 255 0 0
0.141382 0.863635 0.077156 255 0 0
-0.062769 0.826085 -0.018531 255 0 0
-0.330265 -0.712767 -0.006304 255 0 0
-0.321382 0.719920 0.036889 255 0 0
0.111449 0.527135 -0.016576 76 0 153
-0.218732 0.780674 -0.016576 76 0 153
-0.349401 -0.164466 0.072967 255 0 0
-0.294806 0.383956 -0.016576 76 0 153
-0.330265 0.066120 0.008078 255 0 0
0.352728 -0.593340 -0.029889 255 0 0
0.360227 0.670931 0.085848 255 0 0
0.186888 -0.610665 -0.016576 76 0 153
0.345755 -0.524745 0.051034 255 0 0
-0.328301 -0.954778 0.044001 255 0 0
0.319105 -0.565388 0.071001 255 0 0
0.059159 0.544053 -0.019863 76 0 153
-0.348032 0.085121 -0.001683 255 0 0
0.190968 -0.807047 -0.019863 76 0 153
-0.328282 0.278045 0.072967 255 0 0
-0.336893 0.475962 0.079299 255 0 0
-0.348032 -0.373313 0.032661 255 0 0
0.319323 0.497520 -0.019863 76 0 153
-0.023513 -0.574767 -0.019863 76 0 153
0.327988 0.698277 -0.004497 255 0 0
-0.352001 -0.688552 -0.018531 255 0 0
0.168166 -0.411971 -0.016576 76 0 153
0.117458 0.863718 -0.031412 255 0 0
-0.357792 0.813410 0.085848 255 0 0
0.248959 0.535401 -0.019863 76 0 153
-0.052164 -0.076699 -0.016576 76 0 153
-0.177099 -0.718567 -0.016576 76 0 153
-0.321382 -0.604745 0.061410 255 0 0
-0.348032 -0.560692 -0.010298 255 0 0
-0.069185 -0.022898 -0.016576 76 0 153
0.092674 -0.206692 -0.019863 76 0 153
0.240349 -0.092395 -0.019863 76 0 153
0.207698 -0.096916 -0.004727 153 76 0
0.319105 -0.332537 0.059130 255 0 0
0.319105 -0.548263 0.048950 255 0 0
0.345755 -0.552973 0.027058 255 0 0
0.357499 -0.338926 -0.031176 255 0 0
-0.348032 0.026601 0.063923 255 0 0
-0.330265 0.104092 -0.007165 255 0 0
-0.122751 -0.708264 -0.016576 76 0 153
-0.130508 -0.813207 -0.016576 76 0 153
0.047083 0.723996 -0.016576 76 0 153
-0.292163 -0.453834 -0.016576 76 0 153
-0.354664 -0.271991 0.072967 255 0 0
0.331004 -0.468149 0.072967 255 0 0
-0.348032 -0.143949 -0.006265 255 0 0
-0.099618 -0.719281 -0.016576 76 0 153
0.348291 -0.780999 -0.018531 255 0 0
0.016928 -0.339470 -0.016576 76 0 153
-0.321382 -0.325048 0.063202 255 0 0
0.325942 0.247422 0.012561 255 0 0
0.360545 0.726389 0.085848 255 0 0
0.122170 -0.734583 -0.019863 76 0 153
-0.373793 -0.346252 0.083950 255 0 0
-0.043046 -0.658604 -0.019863 76 0 153
-0.341986 0.127940 -0.025499 255 0 0
-0.038904 0.741953 -0.019863 76 0 153
0.211557 0.415119 -0.019863 76 0 153
0.133975 -0.563302 -0.019863 76 0 153
0.249998 -0.541959 -0.016576 76 0 153
0.134997 0.811224 0.031613 255 0 0
0.110772 0.617025 -0.016576 76 0 153
0.345755 -0.736952 -0.005450 255 0 0
-0.378235 -0.481860 -0.019864 255 0 0
0.362392 0.675275 -0.018531 255 0 0
-0.258725 0.682611 -0.019863 76 0 153
0.044923 -0.062472 -0.019863 76 0 153
-0.287188 0.655449 -0.019863 76 0 153
-0.348032 -0.712434 0.060524 255 0 0
-0.033075 0.500062 -0.019863 76 0 153
-0.356046 -0.074413 -0.018531 255 0 0
-0.373793 0.371523 0.083061 255 0 0
0.319105 -0.666483 0.046425 255 0 0
-0.143298 -0.547326 -0.019863 76 0 153
0.337276 0.772475 -0.021824 255 0 0
0.330865 0.052288 0.072967 255 0 0
0.346672 0.809497 0.072967 255 0 0
0.067001 0.192492 -0.016576 76 0 153
-0.293528 0.696434 -0.019863 76 0 153
-0.059484 -0.356998 -0.016576 76 0 153
-0.348032 -0.437878 0.035746 255 0 0
0.350323 -0.795589 0.084875 255 0 0
-0.122573 -0.158518 -0.016576 76 0 153
-0.184751 0.470811 -0.016576 76 0 153
-0.020935 0.540805 -0.016576 76 0 153
-0.321382 -0.663083 0.062247 255 0 0
0.361849 0.486067 -0.031412 255 0 0
-0.350061 -0.735199 0.084190 255 0 0
0.044352 0.217636 -0.016576 76 0 153
0.327988 -0.518909 -0.007013 76 0 153
0.090602 0.644758 -0.019863 76 0 153
-0.127872 0.097441 -0.016576 76 0 153
-0.321382 0.325046 0.043546 255 0 0
0.349021 0.654641 -0.018531 255 0 0
0.280477 0.467553 -0.016576 76 0 153
-0.348032 0.177956 0.068111 255 0 0
-0.353459 -0.094159 -0.029472 255 0 0
-0.042875 -0.738176 -0.016576 76 0 153
-0.326872 -0.854317 -0.019863 76 0 153
-0.056556 0.354667 -0.016576 76 0 153
0.179476 -0.253098 -0.019863 76 0 153
-0.365428 -0.310505 -0.018531 255 0 0
0.319189 -0.171370 0.012561 255 0 0
-0.330265 -0.132686 0.010402 255 0 0
0.345755 0.133966 0.051924 255 0 0
0.202877 0.586886 -0.019863 76 0 153
-0.332285 0.067966 0.072967 255 0 0
-0.144794 -0.220063 -0.016576 76 0 153
-0.227014 0.551393 -0.016576 76 0 153
0.375958 -0.135919 -0.021845 255 0 0
0.215474 -0.206983 -0.019863 76 0 153
0.086351 0.291901 -0.016576 76 0 153
-0.321382 -0.080615 0.047116 255 0 0
0.335283 -0.239263 -0.018531 255 0 0
0.352663 -0.211696 -0.018531 255 0 0
0.096503 0.836615 0.083303 255 0 0
0.364385 -0.570751 -0.031412 255 0 0
0.180365 0.813178 0.072967 255 0 0
0.317581 -0.423771 -0.016576 76 0 153
-0.369419 -0.920620 -0.031412 255 0 0
-0.341632 0.174986 -0.025187 255 0 0
-0.292924 -0.834270 -0.016576 76 0 153
-0.321382 -0.140890 0.043277 255 0 0
0.319105 -0.616504 0.065414 255 0 0
0.053787 -0.096312 -0.016576 76 0 153
-0.052051 -0.336352 -0.016576 76 0 153
0.021437 -0.486303 -0.019863 76 0 153
0.302096 -0.217550 -0.016576 76 0 153
0.280711 -0.205251 -0.019863 76 0 153
-0.321382 -0.214556 0.068320 255 0 0
0.233228 0.343087 -0.016576 76 0 153
0.150941 0.109404 -0.016576 76 0 153
0.301784 0.420912 -0.019863 76 0 153
-0.336911 -0.894206 -0.018531 255 0 0
0.366063 -0.105190 0.072967 255 0 0
-0.124208 0.306073 -0.016576 76 0 153
0.329446 -0.199772 0.072967 255 0 0
-0.285844 0.837874 0.070298 255 0 0
0.165162 -0.241249 -0.016576 76 0 153
0.285434 0.586918 -0.016576 76 0 153
0.324108 0.837874 -0.012895 255 0 0
0.345755 0.155343 0.070052 255 0 0
-0.321382 -0.540128 0.056473 255 0 0
0.165919 0.866452 -0.031412 255 0 0
-0.365810 0.465587 0.085848 255 0 0
-0.037703 0.036430 -0.016576 76 0 153
0.258058 -0.881022 -0.016576 76 0 153
0.084629 -0.623211 -0.019863 76 0 153
-0.358290 0.678770 0.072967 255 0 0
-0.044372 -0.576792 -0.019863 76 0 153
-0.258135 -0.722308 -0.019863 76 0 153
-0.348032 -0.223722 0.062367 255 0 0
0.331450 -0.617140 0.072967 255 0 0
0.347454 0.326242 0.072967 255 0 0
-0.029155 0.820107 0.008617 255 0 0
-0.070327 -0.817990 -0.019863 76 0 153
0.008187 0.550804 -0.016576 76 0 153
0.356555 0.411661 0.072967 255 0 0
0.316721 -0.190074 -0.016576 76 0 153
-0.348032 -0.568244 0.065307 255 0 0
-0.201308 -0.399994 -0.016576 76 0 153
0.350557 0.728601 -0.029304 255 0 0
0.294858 0.495812 -0.016576 76 0 153
-0.254320 0.403489 -0.016576 76 0 153
-0.165394 0.365664 -0.016576 76 0 153
0.258949 0.837874 0.062477 255 0 0
0.365577 0.170023 0.085848 255 0 0
-0.324766 -0.792040 -0.019863 76 0 153
0.289200 0.814073 0.072967 255 0 0
-0.225883 0.868077 -0.029094 255 0 0
0.338031 0.001037 -0.023481 255 0 0
0.319105 0.279755 0.062736 255 0 0
0.071807 -0.576214 -0.016576 76 0 153
-0.367927 -0.346026 -0.018531 255 0 0
-0.321382 -0.740455 0.014001 255 0 0
-0.169636 -0.906487 -0.016576 76 0 153
-0.348032 0.428503 0.068842 255 0 0
-0.261594 0.614982 -0.019863 76 0 153
0.319105 -0.740736 0.044666 255 0 0
-0.250584 0.109661 -0.019863 76 0 153
0.203138 -0.691981 -0.019863 76 0 153
0.327988 -0.773993 0.006271 255 0 0
-0.268867 0.127420 -0.019863 76 0 153
-0.331994 -0.746340 0.072967 255 0 0
-0.320602 -0.121794 -0.016576 76 0 153
-0.332042 0.227698 -0.018019 76 0 153
-0.232934 0.535252 -0.016576 76 0 153
0.099936 -0.553929 -0.016576 76 0 153
-0.216303 0.825167 0.076837 255 0 0
-0.290837 0.281915 -0.016576 76 0 153
0.301858 -0.828855 -0.016576 76 0 153
0.362370 -0.362097 -0.018531 255 0 0
-0.348032 0.619087 0.021155 255 0 0
-0.277768 0.578738 -0.016576 76 0 153
0.031695 0.509908 -0.016576 76 0 153
0.096452 -0.937175 -0.019863 76 0 153
-0.323922 -0.886253 0.072967 255 0 0
0.129496 0.811224 0.072576 255 0 0
0.150494 -0.580160 -0.016576 76 0 153
0.231455 -0.570327 -0.019863 76 0 153
-0.348032 -0.238070 0.019425 255 0 0
0.301222 0.832211 0.082115 255 0 0
0.327988 0.579318 -0.005341 255 0 0
-0.290164 0.407541 -0.016576 76 0 153
0.016416 -0.668330 -0.016576 76 0 153
-0.145938 0.197670 -0.019863 76 0 153
-0.267799 -0.333137 -0.016576 76 0 153
-0.156152 -0.445259 -0.016576 76 0 153
0.337792 -0.548163 0.081463 255 0 0
0.365718 -0.345799 0.085848 255 0 0
0.345755 -0.134216 0.067907 255 0 0
0.355928 0.822336 -0.018531 255 0 0
0.316662 0.566029 -0.016576 76 0 153
0.217750 -0.867149 -0.019863 76 0 153
0.282665 -0.163632 -0.019863 76 0 153
-0.126318 0.498156 -0.019863 76 0 153
-0.321382 0.285779 0.029132 255 0 0
0.301371 0.215636 -0.019863 76 0 153
-0.350276 0.684576 -0.028613 255 0 0
0.066972 0.522948 -0.016576 76 0 153
-0.318293 0.221747 -0.016576 76 0 153
-0.348032 0.318257 0.069009 255 0 0
-0.198038 0.320381 -0.016576 76 0 153
-0.107667 -0.126395 -0.019863 76 0 153
-0.000914 -0.229393 -0.016576 76 0 153
-0.024624 0.840561 0.084368 255 0 0
-0.082078 0.307503 -0.016576 76 0 153
-0.161742 -0.697293 -0.016576 76 0 153
-0.181552 -0.523443 -0.016576 76 0 153
-0.345286 -0.767146 -0.027267 255 0 0
0.217164 -0.676522 -0.019863 76 0 153
0.360798 -0.887971 -0.031412 255 0 0
0.283775 -0.079837 -0.021742 76 0 153
-0.301909 -0.758148 -0.019863 76 0 153
-0.297646 0.013682 -0.016576 76 0 153
0.176054 0.550644 -0.019863 76 0 153
-0.339148 -0.727899 -0.018806 255 0 0
0.127203 -0.085831 -0.019863 76 0 153
-0.365193 -0.021854 -0.031412 255 0 0
0.043405 0.839336 0.084037 255 0 0
0.338156 0.506341 -0.023699 255 0 0
-0.352768 -0.333462 -0.018531 255 0 0
-0.339148 -0.514721 -0.018780 255 0 0
-0.095685 -0.927809 -0.016576 76 0 153
0.073835 0.414474 -0.019863 76 0 153
-0.203865 0.852326 0.085848 255 0 0
0.018040 -0.645604 -0.016576 76 0 153
-0.348032 -0.300169 0.013287 255 0 0
-0.348032 0.402190 0.068580 255 0 0
-0.353160 -0.450466 0.085026 255 0 0
0.320401 -0.650510 0.012561 255 0 0
0.345755 -0.899356 0.006317 255 0 0
0.345755 -0.698921 -0.003925 255 0 0
0.345755 0.632043 0.022570 255 0 0
-0.349554 -0.005255 -0.028419 255 0 0
-0.348032 0.816137 0.020615 255 0 0
0.269239 0.145113 -0.016576 76 0 153
-0.321382 0.143007 0.060993 255 0 0
-0.348032 0.344777 0.054350 255 0 0
-0.130533 0.836783 0.083349 255 0 0
-0.110470 0.464231 -0.019863 76 0 153
0.064542 -0.640338 -0.019863 76 0 153
-0.033049 -0.186634 -0.019863 76 0 153
-0.327531 0.665760 -0.019863 255 0 0
-0.361576 -0.790305 -0.031412 255 0 0
0.309998 0.821883 -0.019826 76 0 153
0.335786 -0.252404 0.080360 255 0 0
0.200161 0.851805 0.072967 255 0 0
-0.353245 0.527108 0.072967 255 0 0
0.319105 0.738956 0.059554 255 0 0
0.345755 0.464365 0.022061 255 0 0
-0.292062 -0.604296 -0.016576 76 0 153
0.375958 -0.245603 -0.020324 255 0 0
0.319105 0.438813 0.058566 255 0 0
-0.361554 0.438294 0.072967 255 0 0
0.021786 0.549582 -0.016576 76 0 153
0.364685 0.740232 -0.018531 255 0 0
0.266752 -0.926429 -0.019863 76 0 153
0.327988 0.813696 -0.013076 255 0 0
-0.357986 0.836253 -0.030693 255 0 0
-0.249704 0.557971 -0.019863 76 0 153
0.327988 0.620413 0.011956 255 0 0
-0.118681 0.606395 -0.019863 76 0 153
0.054267 0.339639 -0.019863 76 0 153
0.230848 0.837874 -0.013786 255 0 0
0.240171 -0.696277 -0.016576 76 0 153
-0.028056 -0.163618 -0.019863 76 0 153
-0.365135 -0.869598 0.072967 255 0 0
-0.284734 0.854430 0.072967 255 0 0
0.075097 0.240449 -0.019863 76 0 153
0.319105 -0.107336 0.071860 255 0 0
-0.113601 0.863043 -0.031412 255 0 0
0.319105 -0.951424 0.024561 255 0 0
0.362670 -0.097629 0.085848 255 0 0
-0.348032 -0.025175 0.016261 255 0 0
0.319105 -0.096590 0.013732 255 0 0
0.276096 -0.386916 -0.019863 76 0 153
-0.211541 -0.323002 -0.019863 76 0 153
0.345755 -0.336021 -0.013123 255 0 0
0.025826 -0.586996 -0.016576 76 0 153
-0.095287 -0.616650 -0.016576 76 0 153
-0.191919 0.113926 -0.019863 76 0 153
-0.096546 -0.053375 -0.019863 76 0 153
0.323853 -0.796828 -0.019863 76 0 153
-0.348032 0.015768 0.035274 255 0 0
0.130792 0.004106 -0.019863 76 0 153
-0.343058 -0.507378 0.082301 255 0 0
-0.173905 -0.582247 -0.016576 76 0 153
0.345755 0.668898 -0.015607 255 0 0
-0.341058 0.851549 0.085848 255 0 0
0.339885 -0.954778 -0.023493 255 0 0
0.083274 0.618887 -0.019863 76 0 153
-0.172358 -0.771118 -0.019863 76 0 153
0.356036 0.050859 0.072967 255 0 0
-0.321382 -0.942394 0.065519 255 0 0
0.345755 -0.644715 0.041878 255 0 0
0.371516 -0.678615 0.080384 255 0 0
-0.353985 0.046933 0.072967 255 0 0
-0.373793 0.134452 0.079380 255 0 0
-0.250309 -0.920631 -0.016576 76 0 153
0.217221 0.746322 -0.016576 76 0 153
-0.278876 -0.222156 -0.019863 76 0 153
-0.064419 0.811224 0.044638 255 0 0
0.295241 0.330906 -0.019863 76 0 153
0.362169 0.630984 -0.018531 255 0 0
-0.343014 -0.019367 0.082289 255 0 0
0.332986 0.837874 0.070539 255 0 0
0.375948 -0.740288 -0.031412 255 0 0
0.252250 -0.167262 -0.016576 76 0 153
0.345755 -0.542979 -0.017730 255 0 0
-0.298068 -0.648325 -0.016576 76 0 153
-0.321382 0.051922 0.066231 255 0 0
0.141307 -0.541434 -0.019863 76 0 153
0.368481 0.353827 0.072967 255 0 0
0.359476 0.348711 0.085848 255 0 0
0.241545 -0.737698 -0.016576 76 0 153
-0.351760 0.279379 0.072967 255 0 0
-0.304617 -0.813034 -0.016576 76 0 153
-0.348032 -0.199843 0.024964 255 0 0
0.352201 0.279230 -0.018531 255 0 0
0.323337 -0.363605 0.072967 255 0 0
-0.330265 0.513758 -0.003815 255 0 0
0.042790 0.544348 -0.019863 76 0 153
0.189365 0.414712 -0.016576 76 0 153
-0.348032 -0.253696 0.060995 255 0 0
-0.122633 0.122043 -0.019863 76 0 153
0.319105 0.366676 0.068823 255 0 0
0.375958 0.533277 -0.028086 255 0 0
-0.326547 0.036456 -0.016576 76 0 153
0.362598 -0.244093 -0.031412 255 0 0
-0.348032 -0.008697 0.037229 255 0 0
0.345755 -0.804914 0.032256 255 0 0
-0.065857 0.820883 0.072967 255 0 0
-0.281553 0.753970 -0.019863 76 0 153
0.333034 -0.597243 0.076805 255 0 0
0.350229 -0.630339 -0.018531 255 0 0
-0.250450 0.673001 -0.019863 76 0 153
0.359830 0.170271 -0.018531 255 0 0
0.165243 0.811224 0.029733 255 0 0
0.228397 -0.354130 -0.016576 76 0 153
0.254846 -0.762711 -0.016576 76 0 153
-0.364408 -0.833986 0.085848 255 0 0
-0.093047 -0.016728 -0.019863 76 0 153
0.353017 0.863596 0.085848 255 0 0
0.368820 0.726662 0.072967 255 0 0
0.375958 -0.602128 -0.030571 255 0 0
0.319105 0.556713 0.060191 255 0 0
0.345755 0.480246 0.033930 255 0 0
0.100724 0.202737 -0.016576 76 0 153
0.126727 0.606982 -0.019863 76 0 153
-0.348032 0.827095 -0.007622 255 0 0
0.161425 0.207698 -0.019863 76 0 153
0.218153 0.811224 0.060148 255 0 0
0.137428 0.820107 0.004926 255 0 0
0.083370 -0.652906 -0.016576 76 0 153
0.179098 -0.569043 -0.016576 76 0 153
-0.321382 0.080661 0.025057 255 0 0
0.154533 -0.672594 -0.019863 76 0 153
0.328779 0.006745 0.072967 255 0 0
0.345755 0.216191 -0.016090 255 0 0
-0.200694 -0.684053 -0.019863 76 0 153
-0.024700 0.612051 -0.019863 76 0 153
0.266643 0.159277 -0.019863 76 0 153
-0.234794 0.846294 -0.030280 255 0 0
-0.112505 0.375821 -0.016576 76 0 153
0.312524 0.153914 -0.016576 76 0 153
0.365113 0.852629 0.085848 255 0 0
-0.371343 0.835895 0.072967 255 0 0
0.319105 -0.628188 0.025431 255 0 0
0.232518 -0.376357 -0.016576 76 0 153
0.165306 -0.399318 -0.016576 76 0 153
0.319105 0.690986 0.043067 255 0 0
-0.348032 0.143114 0.060157 255 0 0
0.025487 0.203907 -0.019863 76 0 153
0.345755 -0.549770 0.008391 255 0 0
-0.330265 -0.594507 -0.010233 255 0 0
0.351814 0.290994 -0.029643 255 0 0
-0.206196 -0.824518 -0.019863 76 0 153
-0.222005 -0.566066 -0.016576 76 0 153
-0.321382 0.086988 0.064844 255 0 0
-0.330768 0.246693 -0.018531 76 0 153
0.245360 0.293271 -0.019863 76 0 153
0.144412 0.025607 -0.016576 76 0 153
0.295427 -0.193636 -0.019863 76 0 153
-0.104771 -0.785687 -0.016576 76 0 153
-0.058764 0.688898 -0.016576 76 0 153
0.133505 0.092090 -0.019863 76 0 153
0.317172 0.364162 -0.016576 76 0 153
0.175563 -0.094394 -0.019863 76 0 153
-0.247034 -0.248420 -0.019863 76 0 153
-0.367924 -0.813733 0.085848 255 0 0
0.345755 0.180435 0.072439 255 0 0
0.327988 -0.162513 0.006787 255 0 0
-0.032930 0.820107 -0.008026 255 0 0
0.371516 0.312067 0.081362 255 0 0
-0.088642 0.616191 -0.016576 76 0 153
0.363827 0.552765 -0.018531 255 0 0
-0.005918 -0.455069 -0.016576 76 0 153
0.260897 -0.002449 -0.016576 76 0 153
-0.122313 0.811224 0.024629 255 0 0
-0.378235 0.723480 -0.026942 255 0 0
-0.056991 -0.922507 -0.019863 76 0 153
-0.353697 -0.350794 0.085171 255 0 0
0.222263 0.524696 -0.019863 76 0 153
-0.308904 -0.483730 -0.019863 76 0 153
0.204894 0.837874 0.000533 255 0 0
0.226402 0.454920 -0.019863 76 0 153
-0.238198 0.837874 0.040659 255 0 0
0.290017 0.039216 -0.016576 76 0 153
0.355840 0.450698 0.085848 255 0 0
0.168941 0.709093 -0.016576 76 0 153
-0.250776 0.049031 -0.016576 76 0 153
-0.010214 -0.428269 -0.016576 76 0 153
0.340157 0.635425 -0.025874 255 0 0
-0.297133 0.855770 -0.018531 255 0 0
0.360416 0.488662 0.072967 255 0 0
-0.344284 0.113843 0.082632 255 0 0
-0.363226 -0.353658 -0.031412 255 0 0
-0.347151 0.842996 -0.029390 255 0 0
0.371299 0.236689 -0.031412 255 0 0
0.319105 0.437504 0.030416 255 0 0
0.208493 -0.422624 -0.019863 76 0 153
-0.048993 0.466892 -0.016576 76 0 153
-0.267752 0.498234 -0.019863 76 0 153
-0.328763 -0.173758 0.072967 255 0 0
0.319105 0.097197 0.029977 255 0 0
0.371516 0.469319 0.076924 255 0 0
0.327988 0.274308 0.009557 255 0 0
-0.142840 -0.156315 -0.016576 76 0 153
0.092523 -0.463849 -0.019863 76 0 153
0.134734 0.581214 -0.019863 76 0 153
0.327988 0.170225 -0.017846 255 0 0
0.303860 0.277167 -0.019863 76 0 153
-0.348032 -0.321205 0.029412 255 0 0
-0.158341 -0.640472 -0.019863 76 0 153
-0.021931 0.746929 -0.016576 76 0 153
0.319105 0.580027 0.042562 255 0 0
0.346885 0.090679 -0.018531 255 0 0
0.020508 0.837874 0.042691 255 0 0
-0.250475 0.593059 -0.019863 76 0 153
0.345755 -0.845012 -0.006681 255 0 0
0.021609 -0.510510 -0.019863 76 0 153
0.364190 0.470400 -0.031412 255 0 0
0.187639 0.591406 -0.016576 76 0 153
-0.351349 0.067042 -0.018531 255 0 0
-0.321382 0.439368 0.041647 255 0 0
0.131634 -0.921914 -0.019863 76 0 153
-0.100321 0.692115 -0.019863 76 0 153
0.008119 -0.410421 -0.019863 76 0 153
0.314557 -0.945949 -0.019863 76 0 153
-0.364725 0.392394 -0.031412 255 0 0
-0.110716 0.487314 -0.016576 76 0 153
0.319105 -0.392885 0.058657 255 0 0
0.198424 0.395277 -0.016576 76 0 153
0.319105 -0.396145 0.031056 255 0 0
-0.271869 0.538230 -0.016576 76 0 153
0.023894 -0.751352 -0.016576 76 0 153
0.190160 0.358400 -0.019863 76 0 153
-0.346164 -0.797967 0.083139 255 0 0
0.241963 0.472028 -0.019863 76 0 153
-0.348032 -0.087685 0.031018 255 0 0
-0.033609 -0.879620 -0.019863 76 0 153
0.138210 0.377490 -0.019863 76 0 153
0.345755 0.176663 0.042509 255 0 0
-0.348032 0.192371 0.022783 255 0 0
-0.034194 -0.371992 -0.019863 76 0 153
-0.190936 0.697063 -0.016576 76 0 153
-0.326975 0.824549 0.073949 255 0 0
0.282680 0.521053 -0.019863 76 0 153
0.319105 -0.465301 0.055972 255 0 0
0.333011 0.576946 0.076754 255 0 0
0.345755 -0.855977 0.041446 255 0 0
0.107422 0.029861 -0.019863 76 0 153
-0.045971 0.334701 -0.016576 76 0 153
-0.267811 0.811224 0.013292 255 0 0
-0.365321 -0.410169 -0.031412 255 0 0
-0.346823 -0.481659 0.083317 255 0 0
0.085025 0.752186 -0.019863 76 0 153
-0.348032 -0.705047 0.035545 255 0 0
0.319105 -0.893110 0.037962 255 0 0
-0.321382 0.261873 0.050939 255 0 0
-0.372205 -0.879484 -0.018531 255 0 0
-0.348032 -0.806133 0.072531 255 0 0
-0.333698 -0.343547 0.072967 255 0 0
-0.365053 -0.200313 -0.031412 255 0 0
-0.348032 -0.077785 0.005528 255 0 0
-0.252850 -0.061692 -0.016576 76 0 153
-0.038130 0.488667 -0.016576 76 0 153
-0.189642 -0.318576 -0.016576 76 0 153
0.365419 0.361306 -0.031412 255 0 0
0.062234 0.791375 -0.019863 76 0 153
0.079106 0.467950 -0.016576 76 0 153
-0.348032 -0.923551 0.012888 255 0 0
0.187619 0.651568 -0.019863 76 0 153
-0.330265 0.206844 0.002454 255 0 0
0.106354 0.144500 -0.019863 76 0 153
-0.098358 0.373979 -0.019863 76 0 153
-0.327031 -0.112361 0.072967 255 0 0
-0.302308 0.101231 -0.016576 76 0 153
0.199112 0.204767 -0.019863 76 0 153
0.327988 -0.105691 -0.008810 255 0 0
-0.321382 -0.272534 0.035771 255 0 0
-0.104413 0.284923 -0.016576 76 0 153
-0.378235 -0.719838 -0.019338 255 0 0
-0.321382 0.629067 0.052892 255 0 0
-0.166968 -0.392845 -0.016576 76 0 153
-0.341389 0.004906 0.081851 255 0 0
-0.230777 0.350199 -0.016576 76 0 153
-0.378235 -0.061525 -0.021396 255 0 0
0.153573 -0.260555 -0.019863 76 0 153
0.258839 0.321856 -0.019863 76 0 153
0.035804 0.853533 -0.031412 255 0 0
-0.103615 -0.917271 -0.019863 76 0 153
-0.344341 -0.522445 -0.026956 255 0 0
0.097133 0.738219 -0.019863 76 0 153
0.155318 0.520507 -0.016576 76 0 153
-0.350481 -0.334351 0.084303 255 0 0
-0.348032 -0.650014 0.003241 255 0 0
-0.102324 0.755462 -0.019863 76 0 153
-0.351527 -0.402745 0.084585 255 0 0
0.151822 0.402078 -0.016576 76 0 153
-0.321781 -0.691841 0.012561 255 0 0
-0.364286 -0.463336 0.085848 255 0 0
0.254928 -0.198645 -0.019863 76 0 153
-0.094478 -0.516072 -0.016576 76 0 153
0.319105 0.540023 0.046885 255 0 0
-0.348032 0.073569 0.071125 255 0 0
-0.151732 0.606471 -0.019863 76 0 153
0.284567 -0.555590 -0.016576 76 0 153
0.345755 0.260316 -0.005601 255 0 0
0.065260 -0.064067 -0.019863 76 0 153
-0.142753 0.586563 -0.016576 76 0 153
-0.318943 0.354608 -0.019863 76 0 153
0.319105 0.383424 0.047710 255 0 0
0.112484 -0.559186 -0.019863 76 0 153
-0.366022 -0.329319 -0.031412 255 0 0
0.108285 0.386415 -0.016576 76 0 153
0.300022 -0.422223 -0.019863 76 0 153
-0.321382 0.581748 0.021057 255 0 0
0.281886 0.545605 -0.019863 76 0 153
-0.369170 -0.182606 0.072967 255 0 0
-0.321382 0.015885 0.028067 255 0 0
0.035139 0.837874 -0.016554 255 0 0
-0.133066 0.837874 0.054277 255 0 0
0.303810 -0.122886 -0.016576 76 0 153
-0.174858 -0.793820 -0.016576 76 0 153
-0.333974 -0.152628 0.072967 255 0 0
-0.072131 -0.625021 -0.019863 76 0 153
-0.221439 -0.078451 -0.016576 76 0 153
0.125853 0.248595 -0.019863 76 0 153
0.342338 0.597812 0.082721 255 0 0
0.056921 -0.890638 -0.016576 76 0 153
-0.339240 0.558540 -0.020558 76 0 153
0.371516 -0.694935 0.078952 255 0 0
0.266835 0.250933 -0.016576 76 0 153
0.345755 -0.792948 0.057128 255 0 0
-0.272548 -0.723131 -0.019863 76 0 153
0.345755 -0.177389 0.005148 255 0 0
-0.025770 0.245351 -0.019863 76 0 153
-0.130599 -0.761544 -0.016576 76 0 153
0.335209 0.299468 -0.018531 255 0 0
0.336205 -0.801563 -0.018531 255 0 0
-0.321382 -0.765941 0.047991 255 0 0
-0.123727 0.847093 -0.018531 255 0 0
-0.148952 0.425251 -0.019863 76 0 153
0.324570 -0.383146 0.012561 255 0 0
0.052435 -0.134276 -0.019863 76 0 153
0.359331 0.564570 -0.018531 255 0 0
0.345755 0.692187 0.061190 255 0 0
-0.070244 0.448097 -0.019863 76 0 153
0.359085 -0.192022 -0.031412 255 0 0
-0.010457 -0.936543 -0.016576 76 0 153
-0.349827 -0.095836 0.072967 255 0 0
-0.317073 0.840974 -0.028844 255 0 0
0.319105 -0.450234 0.048269 255 0 0
0.183451 0.834699 0.082786 255 0 0
0.281283 0.838733 0.072967 255 0 0
-0.271712 -0.439701 -0.019863 76 0 153
-0.222982 -0.092460 -0.019863 76 0 153
0.196277 0.180698 -0.016576 76 0 153
-0.364512 0.748927 0.072967 255 0 0
0.366966 0.619855 -0.018531 255 0 0
0.213807 0.241693 -0.019863 76 0 153
-0.342408 -0.376174 -0.025856 255 0 0
-0.247742 -0.368086 -0.019863 76 0 153
-0.012936 0.837874 0.052208 255 0 0
-0.110039 -0.263219 -0.016576 76 0 153
-0.346639 -0.857825 -0.027632 255 0 0
-0.013797 0.820107 -0.012031 255 0 0
0.121026 0.388848 -0.019863 76 0 153
-0.241010 -0.432369 -0.019863 76 0 153
-0.376815 0.330240 -0.031412 255 0 0
0.212247 -0.461119 -0.019863 76 0 153
0.294525 0.053563 -0.019863 76 0 153
-0.364187 0.039017 0.072967 255 0 0
-0.321382 -0.810160 0.068214 255 0 0
0.194584 -0.105797 -0.016576 76 0 153
0.319105 0.134794 0.025963 255 0 0
0.026597 0.494131 -0.016576 76 0 153
0.345755 -0.135685 -0.011811 255 0 0
0.345755 -0.334629 0.043173 255 0 0
-0.334451 -0.225167 -0.018531 76 0 153
0.171374 -0.775212 -0.016576 76 0 153
-0.218847 -0.700422 -0.019863 76 0 153
-0.352979 -0.213565 -0.018531 255 0 0
0.319460 -0.451607 0.012561 255 0 0
0.345755 -0.261054 0.002161 255 0 0
-0.239652 0.406197 -0.016576 76 0 153
0.319105 -0.691369 0.034926 255 0 0
0.319105 -0.868771 0.024804 255 0 0
0.375958 0.769001 -0.020749 255 0 0
0.327988 0.809532 0.011068 255 0 0
-0.361953 -0.230722 -0.031412 255 0 0
-0.265152 0.451055 -0.016576 76 0 153
-0.045780 0.171750 -0.016576 76 0 153
0.065690 0.837874 0.058955 255 0 0
0.359837 -0.913368 0.072967 255 0 0
0.221201 0.562554 -0.016576 76 0 153
-0.348032 0.250859 0.010691 255 0 0
-0.255085 0.032702 -0.019863 76 0 153
-0.366071 0.247003 -0.031412 255 0 0
0.143905 0.797509 -0.016576 76 0 153
-0.321382 0.435823 0.070401 255 0 0
0.345755 -0.654566 -0.000429 255 0 0
0.255999 0.108190 -0.016576 76 0 153
0.010023 0.464582 -0.016576 76 0 153
0.233787 -0.718823 -0.016576 76 0 153
0.349333 -0.252317 -0.018531 255 0 0
0.278865 0.790526 -0.019863 76 0 153
-0.258910 0.146081 -0.016576 76 0 153
-0.321382 0.542466 0.066734 255 0 0
0.349482 0.518290 0.072967 255 0 0
0.373189 0.357253 -0.018531 255 0 0
-0.345054 0.291437 0.082839 255 0 0
-0.124294 0.164658 -0.016576 76 0 153
-0.321382 0.744420 0.048692 255 0 0
0.237715 -0.402597 -0.016576 76 0 153
0.032929 0.832284 0.082135 255 0 0
-0.169107 0.668769 -0.019863 76 0 153
-0.084230 0.832962 -0.026348 255 0 0
-0.016735 -0.280490 -0.016576 76 0 153
-0.348032 -0.171887 -0.006474 255 0 0
-0.330265 0.483293 -0.008054 255 0 0
0.369315 -0.954184 0.085848 255 0 0
-0.253385 0.380701 -0.019863 76 0 153
-0.072573 0.101205 -0.016576 76 0 153
-0.321382 0.558774 0.060665 255 0 0
0.287836 0.735380 -0.019863 76 0 153
0.355994 -0.553934 0.072967 255 0 0
0.028061 -0.138162 -0.016576 76 0 153
0.068319 0.116998 -0.019863 76 0 153
0.323481 -0.261396 -0.016576 76 0 153
-0.356913 -0.188334 0.072967 255 0 0
-0.350795 -0.232598 0.072967 255 0 0
-0.329020 -0.057500 0.072967 255 0 0
0.032447 -0.116684 -0.019863 76 0 153
-0.321382 0.791803 0.059583 255 0 0
-0.356748 -0.935408 -0.018531 255 0 0
0.319105 -0.109073 0.047669 255 0 0
-0.113182 -0.084502 -0.016576 76 0 153
0.361307 -0.117781 -0.018531 255 0 0
-0.321382 0.743218 0.023131 255 0 0
-0.266974 -0.051729 -0.019863 76 0 153
-0.372892 0.016379 -0.031412 255 0 0
-0.138819 -0.275755 -0.019863 76 0 153
0.037545 -0.580671 -0.019863 76 0 153
-0.348032 0.599438 0.001217 255 0 0
-0.378235 0.044648 -0.029509 255 0 0
0.319105 -0.678826 0.018961 255 0 0
0.144620 0.003708 -0.016576 76 0 153
0.022285 -0.858879 -0.016576 76 0 153
0.160503 0.794623 -0.016576 76 0 153
-0.329749 -0.377535 0.012561 255 0 0
-0.348032 0.408716 -0.000144 255 0 0
0.358082 -0.066189 0.072967 255 0 0
-0.276164 0.378573 -0.019863 76 0 153
-0.179967 -0.594642 -0.019863 76 0 153
0.057030 0.811224 0.025214 255 0 0
-0.182022 -0.021178 -0.016576 76 0 153
0.227978 0.807574 -0.019863 76 0 153
0.004847 0.570045 -0.016576 76 0 153
0.231066 0.739464 -0.016576 76 0 153
0.050682 0.491312 -0.019863 76 0 153
-0.022163 0.458788 -0.019863 76 0 153
-0.162972 -0.942965 -0.019863 76 0 153
0.327988 0.550062 0.008084 255 0 0
0.319105 0.053764 0.033893 255 0 0
0.116258 -0.571170 -0.016576 76 0 153
-0.348032 0.836649 0.004249 255 0 0
0.349318 0.780500 -0.018531 255 0 0
-0.293820 -0.301469 -0.019863 76 0 153
0.189515 0.605668 -0.019863 76 0 153
0.320774 0.742322 0.072967 255 0 0
-0.237363 -0.172487 -0.016576 76 0 153
-0.306920 0.820107 0.010281 255 0 0
-0.162372 0.725540 -0.019863 76 0 153
0.049801 0.241992 -0.019863 76 0 153
-0.267032 0.314014 -0.016576 76 0 153
0.027297 -0.019853 -0.016576 76 0 153
-0.336878 -0.934875 -0.018531 255 0 0
0.150651 -0.829475 -0.016576 76 0 153
0.120108 -0.075471 -0.016576 76 0 153
0.372580 -0.401578 -0.031412 255 0 0
0.327988 0.255073 -0.005776 255 0 0
-0.100100 0.834238 0.082662 255 0 0
0.345755 0.299091 0.039814 255 0 0
-0.355472 -0.428170 0.072967 255 0 0
0.345755 0.628567 0.047472 255 0 0
0.066375 0.144506 -0.019863 76 0 153
0.188291 0.317847 -0.019863 76 0 153
-0.321382 -0.524024 0.029356 255 0 0
0.310075 0.399303 -0.019863 76 0 153
-0.348032 0.399285 0.021675 255 0 0
-0.372180 -0.151192 0.072967 255 0 0
-0.071922 0.176141 -0.016576 76 0 153
0.365558 -0.951107 -0.018531 255 0 0
0.125946 -0.475446 -0.019863 76 0 153
