ply
format ascii 1.0
element vertex 630
property float x
property float y
property float z
property float nx
property float ny
property float nz
property uchar red
property uchar green
property uchar blue
property float opacity
end_header
0.303875 0.339595 0.206171 0.000000 0.000000 -1.000000 74 64 43 1.000000
-0.244869 0.034953 -0.431815 -0.766415 -0.000000 0.642345 211 193 157 1.000000
-0.527975 -0.075325 -0.022874 0.000000 0.000000 -1.000000 73 63 40 1.000000
0.024801 -0.131892 -0.110057 0.766415 0.000000 -0.642345 206 178 129 1.000000
0.491767 0.234892 0.206171 -0.000000 -0.000000 1.000000 70 61 42 1.000000
-0.132518 0.454069 -0.392677 0.766415 0.000000 -0.642345 208 176 116 1.000000
0.282666 0.707887 0.111556 0.000000 -1.000000 -0.000000 84 76 51 1.000000
0.015582 -0.363099 -0.121057 -0.766415 -0.000000 0.642345 206 174 123 1.000000
0.066329 0.532772 -0.078030 0.000000 1.000000 0.000000 209 174 120 1.000000
0.468239 0.707887 0.107853 0.000000 1.000000 0.000000 60 50 36 1.000000
-0.167244 0.707887 0.139209 0.000000 -1.000000 -0.000000 73 63 42 1.000000
0.389622 0.707887 0.033792 0.000000 -1.000000 -0.000000 43 33 19 1.000000
0.467240 0.331237 -0.022874 0.000000 0.000000 -1.000000 76 66 45 1.000000
-0.009270 0.503618 -0.150709 0.766415 0.000000 -0.642345 211 174 108 1.000000
-0.595811 0.311120 0.206171 0.000000 0.000000 -1.000000 79 66 46 1.000000
0.198413 -0.435778 0.081496 -0.023957 -0.000000 0.999713 89 76 54 1.000000
-0.510620 -0.559435 0.062085 -1.000000 0.000000 0.000000 70 59 43 1.000000
0.306576 -0.003329 0.206171 -0.000000 -0.000000 1.000000 96 80 55 1.000000
0.323324 -0.781762 0.205868 -0.000000 -1.000000 -0.000000 255 255 255 1.000000
0.428055 -0.026717 0.206171 0.000000 0.000000 -1.000000 73 62 44 1.000000
0.384571 0.207208 -0.022874 0.000000 0.000000 -1.000000 85 75 54 1.000000
0.544138 0.188081 0.104614 1.000000 0.000000 0.000000 76 66 45 1.000000
-0.218801 -0.781762 -0.428873 -0.000000 1.000000 0.000000 170 176 204 1.000000
0.524139 0.707887 0.196276 0.000000 -1.000000 -0.000000 54 44 33 1.000000
-0.460031 0.707887 0.187130 0.000000 -1.000000 -0.000000 82 75 43 1.000000
0.544138 -0.084890 0.129654 -1.000000 0.000000 0.000000 79 68 50 1.000000
-0.110353 -0.326617 -0.352055 0.766415 0.000000 -0.642345 169 121 73 1.000000
0.284523 -0.266941 -0.022874 -0.000000 -0.000000 1.000000 28 19 8 1.000000
-0.252923 -0.599046 -0.455932 -0.642345 0.000000 -0.766415 216 176 111 1.000000
0.130480 -0.734924 0.016033 -0.766415 -0.000000 0.642345 215 175 110 1.000000
-0.510620 -0.013570 -0.002005 -1.000000 0.000000 0.000000 70 65 45 1.000000
-0.225558 -0.487071 -0.478867 0.642345 -0.000000 0.766415 210 166 105 1.000000
0.273404 -0.071464 0.096225 -1.000000 0.000000 0.000000 43 38 22 1.000000
0.204483 -0.703243 0.036629 -0.642345 0.000000 -0.766415 255 255 255 1.000000
0.544138 0.200256 0.003373 1.000000 0.000000 0.000000 49 41 27 1.000000
0.282431 0.474352 -0.022874 0.000000 0.000000 -1.000000 96 82 59 1.000000
0.544138 0.012695 0.179696 -1.000000 0.000000 0.000000 51 41 27 1.000000
0.052987 -0.188762 -0.076428 0.766415 0.000000 -0.642345 207 177 127 1.000000
-0.253480 -0.708839 -0.455465 -0.642345 0.000000 -0.766415 205 172 117 1.000000
-0.510620 -0.100416 0.155496 -1.000000 0.000000 0.000000 70 59 43 1.000000
-0.042585 0.127748 -0.253784 -0.642345 0.000000 -0.766415 0 0 0 1.000000
0.189758 0.159277 -0.008153 0.766415 0.000000 -0.642345 204 172 119 1.000000
-0.038415 -0.445704 -0.242487 0.766415 0.000000 -0.642345 176 109 53 1.000000
-0.043146 0.532772 0.132776 0.000000 1.000000 0.000000 43 37 23 1.000000
0.474288 -0.673698 -0.022874 -0.000000 -0.000000 1.000000 79 68 52 1.000000
-0.532228 0.447997 0.206171 -0.000000 -0.000000 1.000000 63 54 37 1.000000
-0.510620 0.254883 0.133371 1.000000 0.000000 0.000000 74 60 38 1.000000
-0.055314 -0.259498 -0.274815 -0.766415 -0.000000 0.642345 203 170 125 1.000000
0.210254 -0.313294 0.016301 -0.766415 -0.000000 0.642345 209 174 118 1.000000
0.115302 0.449219 -0.096990 -0.766415 -0.000000 0.642345 212 179 122 1.000000
-0.606181 0.048590 -0.022874 0.000000 0.000000 -1.000000 63 53 40 1.000000
-0.226730 0.707887 0.120164 0.000000 1.000000 0.000000 71 67 44 1.000000
-0.609632 0.536234 0.206171 0.000000 0.000000 -1.000000 72 62 39 1.000000
0.273404 0.049218 -0.008040 -1.000000 0.000000 0.000000 73 63 42 1.000000
0.035600 0.437382 -0.192087 0.766415 0.000000 -0.642345 210 189 146 1.000000
-0.197967 -0.564832 -0.375853 -0.766415 -0.000000 0.642345 194 165 113 1.000000
0.200650 -0.766212 0.039841 -0.642345 0.000000 -0.766415 255 255 255 1.000000
-0.572428 -0.781762 0.152221 -0.000000 1.000000 0.000000 170 176 204 1.000000
-0.624701 0.549587 0.029428 -1.000000 0.000000 0.000000 56 46 32 1.000000
0.514144 0.223640 -0.022874 0.000000 0.000000 -1.000000 82 71 55 1.000000
-0.624701 -0.733732 0.087236 1.000000 0.000000 0.000000 53 44 27 1.000000
-0.528724 -0.471096 0.206171 0.000000 0.000000 -1.000000 79 69 48 1.000000
0.207009 -0.347154 0.012430 -0.766415 -0.000000 0.642345 209 193 148 1.000000
0.537699 0.410771 0.206171 0.000000 0.000000 -1.000000 69 58 42 1.000000
0.177510 0.532772 0.093591 0.000000 -1.000000 -0.000000 73 63 42 1.000000
-0.624701 -0.444164 0.099208 1.000000 0.000000 0.000000 84 74 51 1.000000
0.049418 0.707887 0.060072 0.000000 -1.000000 -0.000000 74 64 41 1.000000
0.013216 0.366791 -0.204619 -0.766415 -0.000000 0.642345 187 107 26 1.000000
-0.530412 -0.179846 0.206171 -0.000000 -0.000000 1.000000 90 80 56 1.000000
0.005702 -0.439900 -0.132846 -0.766415 -0.000000 0.642345 211 197 158 1.000000
0.460219 0.653467 -0.022874 -0.000000 -0.000000 1.000000 78 68 47 1.000000
0.525695 0.176689 -0.022874 0.000000 0.000000 -1.000000 71 61 38 1.000000
0.393399 -0.765548 0.206171 -0.000000 -0.000000 1.000000 84 71 53 1.000000
-0.619180 -0.035317 -0.022874 0.000000 0.000000 -1.000000 76 66 45 1.000000
-0.624701 -0.110708 0.124035 1.000000 0.000000 0.000000 87 72 53 1.000000
-0.127449 -0.166321 -0.386629 -0.766415 -0.000000 0.642345 200 160 87 1.000000
0.046584 0.278753 -0.153236 -0.766415 -0.000000 0.642345 186 159 100 1.000000
0.061453 -0.631998 -0.066326 0.766415 0.000000 -0.642345 210 171 114 1.000000
0.122671 0.234774 0.006716 -0.766415 -0.000000 0.642345 207 173 123 1.000000
-0.037324 0.512087 -0.184182 0.766415 0.000000 -0.642345 202 180 127 1.000000
0.204987 -0.288896 0.080990 -0.187935 0.000000 -0.982181 81 67 52 1.000000
0.181814 0.456697 -0.017631 0.766415 0.000000 -0.642345 206 197 154 1.000000
0.273404 -0.221042 0.066154 1.000000 0.000000 0.000000 73 62 48 1.000000
-0.194312 -0.338818 -0.466407 0.766415 0.000000 -0.642345 203 167 103 1.000000
0.457012 -0.677026 0.206171 -0.000000 -0.000000 1.000000 73 65 41 1.000000
-0.511043 -0.733909 0.206171 0.000000 0.000000 -1.000000 57 49 34 1.000000
-0.422526 0.545701 0.206171 -0.000000 -0.000000 1.000000 64 57 37 1.000000
-0.117877 -0.026160 -0.361032 -0.766415 -0.000000 0.642345 157 74 26 1.000000
0.330826 -0.266222 -0.022874 0.000000 0.000000 -1.000000 77 65 41 1.000000
-0.624701 0.594148 0.193159 1.000000 0.000000 0.000000 70 60 39 1.000000
0.442408 -0.724199 0.206171 0.000000 0.000000 -1.000000 71 62 43 1.000000
0.273404 0.470403 0.037534 1.000000 0.000000 0.000000 63 53 32 1.000000
0.382704 -0.759037 -0.022874 -0.000000 -0.000000 1.000000 65 56 37 1.000000
0.077164 -0.254212 -0.047581 -0.766415 -0.000000 0.642345 205 189 142 1.000000
-0.045440 -0.136448 -0.251391 -0.642345 0.000000 -0.766415 0 0 0 1.000000
-0.163183 -0.171161 -0.429265 -0.766415 -0.000000 0.642345 211 194 154 1.000000
0.195915 0.245828 0.081362 -0.104496 -0.000000 0.994525 67 58 41 1.000000
0.146468 -0.765143 -0.059805 0.766415 0.000000 -0.642345 193 167 120 1.000000
0.495994 -0.465107 0.206171 -0.000000 -0.000000 1.000000 48 40 26 1.000000
0.273404 -0.596455 0.111801 -1.000000 0.000000 0.000000 64 60 45 1.000000
0.060290 0.321340 -0.148452 0.766415 0.000000 -0.642345 147 111 83 1.000000
-0.624701 0.685900 0.076724 1.000000 0.000000 0.000000 81 68 48 1.000000
-0.067713 0.036149 -0.300485 0.642345 -0.000000 0.766415 0 0 0 1.000000
-0.510620 -0.267647 0.023266 -1.000000 0.000000 0.000000 69 60 43 1.000000
-0.529418 -0.333944 0.206171 0.000000 0.000000 -1.000000 78 65 43 1.000000
-0.159391 0.707887 0.185026 0.000000 -1.000000 -0.000000 59 49 28 1.000000
-0.138293 0.087785 -0.304653 0.766415 0.000000 -0.642345 212 201 169 1.000000
0.285308 0.589454 -0.022874 -0.000000 -0.000000 1.000000 75 65 44 1.000000
0.350300 -0.438018 0.206171 0.000000 0.000000 -1.000000 77 68 49 1.000000
0.544138 0.104278 -0.004701 -1.000000 0.000000 0.000000 90 78 54 1.000000
-0.510620 -0.086758 -0.019109 1.000000 0.000000 0.000000 67 58 37 1.000000
-0.067991 0.088266 -0.301511 -0.766415 -0.000000 0.642345 149 90 44 1.000000
0.202521 -0.739136 0.038273 -0.642345 0.000000 -0.766415 255 255 255 1.000000
-0.518754 0.054378 0.206171 -0.000000 -0.000000 1.000000 87 77 53 1.000000
-0.369719 0.707887 0.029164 0.000000 1.000000 0.000000 85 72 52 1.000000
0.112911 -0.215872 -0.085668 0.766415 0.000000 -0.642345 109 46 3 1.000000
0.026281 -0.471331 -0.108291 -0.766415 -0.000000 0.642345 210 180 130 1.000000
0.354895 0.238008 -0.022874 -0.000000 -0.000000 1.000000 71 61 40 1.000000
0.055795 0.302467 -0.073077 0.766415 0.000000 -0.642345 212 178 119 1.000000
0.389862 -0.328172 -0.022874 0.000000 0.000000 -1.000000 70 59 43 1.000000
0.112772 0.546125 0.206171 -0.000000 -0.000000 1.000000 75 65 44 1.000000
0.508575 0.114376 0.206171 0.000000 0.000000 -1.000000 74 63 45 1.000000
0.295704 0.225192 -0.022874 0.000000 0.000000 -1.000000 77 64 44 1.000000
0.544138 0.104427 0.104131 -1.000000 0.000000 0.000000 52 40 32 1.000000
-0.183927 -0.096072 -0.454016 0.766415 0.000000 -0.642345 203 166 108 1.000000
-0.624701 -0.443332 0.181718 1.000000 0.000000 0.000000 69 58 40 1.000000
-0.072085 -0.535144 -0.306395 0.766415 0.000000 -0.642345 169 94 15 1.000000
0.491520 0.707887 0.126252 0.000000 1.000000 0.000000 36 28 14 1.000000
0.478360 0.105848 0.206171 0.000000 0.000000 -1.000000 80 70 47 1.000000
-0.016333 -0.147059 -0.159137 -0.766415 -0.000000 0.642345 211 187 149 1.000000
-0.239836 -0.261681 -0.425810 -0.766415 -0.000000 0.642345 206 178 126 1.000000
0.183688 0.447044 0.054058 -0.642345 0.000000 -0.766415 255 255 255 1.000000
-0.231087 0.328881 -0.415371 -0.766415 -0.000000 0.642345 204 171 118 1.000000
0.459413 0.417619 -0.022874 -0.000000 -0.000000 1.000000 78 67 49 1.000000
0.544138 -0.454440 0.044205 -1.000000 0.000000 0.000000 80 70 49 1.000000
-0.201435 0.129953 -0.474905 0.766415 0.000000 -0.642345 190 161 107 1.000000
-0.355479 0.660665 -0.022874 0.000000 0.000000 -1.000000 80 70 49 1.000000
0.273404 0.381765 -0.005248 1.000000 0.000000 0.000000 82 72 49 1.000000
0.292849 0.435111 -0.022874 -0.000000 -0.000000 1.000000 77 68 47 1.000000
-0.164788 -0.332213 -0.336267 0.766415 0.000000 -0.642345 207 171 122 1.000000
-0.592842 -0.722539 0.206171 0.000000 0.000000 -1.000000 75 65 44 1.000000
0.230417 -0.718524 0.049331 0.999281 0.000000 -0.037910 74 67 47 1.000000
0.544138 -0.022910 0.057451 -1.000000 0.000000 0.000000 75 65 44 1.000000
0.544138 0.306425 0.184307 1.000000 0.000000 0.000000 79 66 44 1.000000
0.005072 -0.103470 -0.190600 -0.766415 -0.000000 0.642345 129 72 5 1.000000
0.402962 -0.302240 -0.022874 -0.000000 -0.000000 1.000000 75 64 48 1.000000
0.544138 0.227644 0.036271 1.000000 0.000000 0.000000 65 55 42 1.000000
0.003576 -0.487998 -0.135382 0.766415 0.000000 -0.642345 205 173 123 1.000000
-0.223240 0.056608 -0.480810 -0.642345 0.000000 -0.766415 211 200 158 1.000000
-0.165155 0.707887 0.035619 0.000000 -1.000000 -0.000000 74 64 43 1.000000
-0.510620 -0.510781 0.062345 1.000000 0.000000 0.000000 77 64 44 1.000000
0.544138 0.580073 0.165555 -1.000000 0.000000 0.000000 50 41 32 1.000000
-0.212400 -0.096550 -0.393074 -0.766415 -0.000000 0.642345 214 172 110 1.000000
0.220248 0.078900 0.027795 0.747851 0.000000 -0.663867 74 65 46 1.000000
-0.051555 0.057906 -0.270330 0.766415 0.000000 -0.642345 203 170 113 1.000000
0.368049 -0.781762 0.100616 0.000000 1.000000 0.000000 170 176 204 1.000000
0.221733 -0.371477 0.071745 -0.728531 0.000000 -0.685012 60 52 35 1.000000
-0.017361 -0.025786 -0.160363 0.766415 0.000000 -0.642345 212 199 169 1.000000
-0.624701 0.648592 -0.017272 1.000000 0.000000 0.000000 51 48 29 1.000000
-0.049756 -0.070403 -0.268184 0.766415 0.000000 -0.642345 207 196 162 1.000000
0.273404 0.441337 0.114247 -1.000000 0.000000 0.000000 54 44 33 1.000000
0.273404 -0.458553 0.162129 1.000000 0.000000 0.000000 48 40 26 1.000000
-0.508210 0.624102 0.206171 0.000000 0.000000 -1.000000 50 42 27 1.000000
-0.064203 0.218812 -0.216253 -0.766415 -0.000000 0.642345 190 162 113 1.000000
0.122813 -0.253731 -0.087846 -0.642345 0.000000 -0.766415 0 0 0 1.000000
-0.159440 -0.049009 -0.329885 -0.766415 -0.000000 0.642345 207 164 107 1.000000
-0.233854 -0.346904 -0.418672 -0.766415 -0.000000 0.642345 207 190 148 1.000000
0.045055 -0.736767 -0.085891 -0.766415 -0.000000 0.642345 206 195 151 1.000000
0.331402 0.208396 -0.022874 -0.000000 -0.000000 1.000000 83 70 52 1.000000
0.037919 -0.451364 -0.094406 0.766415 0.000000 -0.642345 208 182 135 1.000000
0.479052 0.285834 -0.022874 0.000000 0.000000 -1.000000 70 61 42 1.000000
0.404149 -0.781762 0.112717 0.000000 1.000000 0.000000 170 176 204 1.000000
0.333567 0.687589 0.206171 0.000000 0.000000 -1.000000 94 81 53 1.000000
-0.112248 0.175857 -0.273578 0.766415 0.000000 -0.642345 199 184 133 1.000000
0.544138 0.468521 0.030932 1.000000 0.000000 0.000000 70 60 39 1.000000
0.058830 0.220073 -0.069455 -0.766415 -0.000000 0.642345 211 175 111 1.000000
-0.624701 -0.411617 0.104969 -1.000000 0.000000 0.000000 71 60 42 1.000000
0.393014 -0.781762 0.012135 -0.000000 -1.000000 -0.000000 255 255 255 1.000000
-0.139062 0.596437 -0.022874 -0.000000 -0.000000 1.000000 73 63 42 1.000000
0.439666 0.488352 -0.022874 0.000000 0.000000 -1.000000 81 71 47 1.000000
-0.595320 -0.301799 -0.022874 -0.000000 -0.000000 1.000000 76 65 47 1.000000
0.386583 -0.781762 0.139475 0.000000 1.000000 0.000000 170 176 204 1.000000
-0.510620 -0.724086 0.052040 -1.000000 0.000000 0.000000 73 63 42 1.000000
0.396151 0.443429 -0.022874 -0.000000 -0.000000 1.000000 68 58 37 1.000000
0.147791 0.162701 -0.058226 0.766415 0.000000 -0.642345 209 173 111 1.000000
-0.036249 -0.758973 -0.277813 0.766415 0.000000 -0.642345 210 192 144 1.000000
-0.236538 -0.245766 -0.469664 0.642345 -0.000000 0.766415 207 175 124 1.000000
0.350453 -0.736832 0.206171 -0.000000 -0.000000 1.000000 75 65 44 1.000000
-0.243397 0.369691 -0.430058 -0.766415 -0.000000 0.642345 196 178 120 1.000000
-0.104529 -0.758189 -0.264368 -0.766415 -0.000000 0.642345 208 176 126 1.000000
-0.624701 0.482435 0.006195 1.000000 0.000000 0.000000 73 65 41 1.000000
-0.062637 -0.474504 -0.283553 0.766415 0.000000 -0.642345 194 170 128 1.000000
-0.532843 0.081649 -0.022874 -0.000000 -0.000000 1.000000 76 65 47 1.000000
-0.621866 0.255899 0.206171 0.000000 0.000000 -1.000000 69 59 38 1.000000
0.544138 0.611754 0.060667 -1.000000 0.000000 0.000000 70 59 43 1.000000
0.316734 0.187233 -0.022874 -0.000000 -0.000000 1.000000 75 65 44 1.000000
-0.117264 0.707887 0.172032 0.000000 1.000000 0.000000 71 61 40 1.000000
0.333777 -0.178555 0.206171 0.000000 0.000000 -1.000000 73 65 41 1.000000
0.328895 0.520006 -0.022874 -0.000000 -0.000000 1.000000 78 65 43 1.000000
0.464586 -0.295902 0.206171 -0.000000 -0.000000 1.000000 74 65 46 1.000000
-0.109266 0.154481 -0.270020 -0.766415 -0.000000 0.642345 208 201 161 1.000000
-0.158496 -0.424628 -0.328758 -0.766415 -0.000000 0.642345 206 166 103 1.000000
0.544138 -0.518481 0.169339 -1.000000 0.000000 0.000000 79 66 44 1.000000
0.496967 0.279921 0.206171 0.000000 0.000000 -1.000000 72 61 43 1.000000
-0.624701 0.602832 0.084241 -1.000000 0.000000 0.000000 87 75 51 1.000000
0.192779 0.512494 -0.004549 -0.766415 -0.000000 0.642345 218 201 161 1.000000
-0.204158 -0.147733 -0.383240 -0.766415 -0.000000 0.642345 214 202 164 1.000000
0.515183 -0.743847 0.206171 -0.000000 -0.000000 1.000000 85 68 46 1.000000
0.200280 0.281639 0.004401 0.766415 0.000000 -0.642345 208 171 112 1.000000
0.118907 -0.420539 -0.084572 0.642345 -0.000000 0.766415 0 0 0 1.000000
-0.023375 0.040494 -0.204860 -0.766415 -0.000000 0.642345 207 181 134 1.000000
-0.280755 0.700793 -0.022874 -0.000000 -0.000000 1.000000 76 66 45 1.000000
0.376485 -0.159044 0.206171 -0.000000 -0.000000 1.000000 59 49 26 1.000000
-0.070958 0.238784 -0.293481 0.766415 0.000000 -0.642345 209 183 134 1.000000
0.084267 0.532772 0.144934 0.000000 1.000000 0.000000 75 64 48 1.000000
0.420825 0.549858 0.206171 -0.000000 -0.000000 1.000000 84 74 51 1.000000
-0.109166 0.669397 0.206171 0.000000 0.000000 -1.000000 76 69 49 1.000000
0.544138 0.052700 0.151010 -1.000000 0.000000 0.000000 84 74 51 1.000000
-0.539458 0.686530 -0.022874 0.000000 0.000000 -1.000000 92 82 61 1.000000
-0.598482 -0.267744 0.206171 -0.000000 -0.000000 1.000000 89 76 56 1.000000
-0.560369 0.457077 -0.022874 0.000000 0.000000 -1.000000 73 60 38 1.000000
-0.579347 0.033250 -0.022874 -0.000000 -0.000000 1.000000 64 53 37 1.000000
-0.624701 -0.045778 0.198716 -1.000000 0.000000 0.000000 75 65 44 1.000000
-0.528363 0.399862 0.206171 -0.000000 -0.000000 1.000000 68 57 41 1.000000
-0.173153 0.378919 -0.346247 0.766415 0.000000 -0.642345 211 191 150 1.000000
-0.213249 0.532772 0.185224 0.000000 1.000000 0.000000 39 34 24 1.000000
0.273404 -0.421887 0.085347 1.000000 0.000000 0.000000 69 60 43 1.000000
-0.259061 -0.070231 -0.448748 -0.766415 -0.000000 0.642345 213 197 159 1.000000
-0.037836 -0.394508 -0.241796 0.766415 0.000000 -0.642345 125 74 31 1.000000
-0.599168 0.573561 -0.022874 0.000000 0.000000 -1.000000 85 76 49 1.000000
-0.510620 0.302795 0.046588 -1.000000 0.000000 0.000000 78 68 47 1.000000
0.090481 0.506600 -0.031692 0.766415 0.000000 -0.642345 209 172 113 1.000000
-0.624701 -0.048640 0.161655 -1.000000 0.000000 0.000000 71 60 44 1.000000
0.039762 -0.211651 -0.092207 0.766415 0.000000 -0.642345 209 175 115 1.000000
0.514860 0.585327 0.206171 0.000000 0.000000 -1.000000 77 67 46 1.000000
-0.072185 -0.223787 -0.225776 0.766415 0.000000 -0.642345 202 172 122 1.000000
0.192787 0.611963 -0.022874 -0.000000 -0.000000 1.000000 71 62 41 1.000000
0.099075 0.070910 -0.102176 -0.766415 -0.000000 0.642345 106 66 26 1.000000
-0.192111 -0.267531 -0.463780 -0.766415 -0.000000 0.642345 208 172 108 1.000000
-0.510620 0.199202 0.089595 1.000000 0.000000 0.000000 72 61 45 1.000000
-0.236193 -0.073059 -0.421463 -0.766415 -0.000000 0.642345 205 177 116 1.000000
0.052651 -0.567519 -0.157566 0.766415 0.000000 -0.642345 136 81 28 1.000000
-0.054313 0.532772 0.094190 0.000000 -1.000000 -0.000000 75 66 45 1.000000
0.407015 -0.781762 0.049442 0.000000 1.000000 0.000000 170 176 204 1.000000
-0.059380 0.550529 0.206171 -0.000000 -0.000000 1.000000 87 74 52 1.000000
0.297645 -0.055398 -0.022874 0.000000 0.000000 -1.000000 46 37 28 1.000000
0.050660 -0.073929 -0.079204 -0.766415 -0.000000 0.642345 210 205 169 1.000000
-0.510620 -0.631144 0.053492 -1.000000 0.000000 0.000000 77 67 46 1.000000
0.129952 -0.072952 0.015403 0.766415 0.000000 -0.642345 206 171 115 1.000000
0.544138 -0.640210 0.115057 1.000000 0.000000 0.000000 75 65 44 1.000000
0.149268 -0.439698 0.038451 -0.766415 -0.000000 0.642345 211 196 151 1.000000
0.371380 0.255029 0.206171 -0.000000 -0.000000 1.000000 67 57 36 1.000000
-0.421420 0.532772 0.010864 0.000000 1.000000 0.000000 44 38 26 1.000000
0.202754 0.532772 0.199282 0.000000 -1.000000 -0.000000 56 46 33 1.000000
-0.529613 -0.224133 -0.022874 -0.000000 -0.000000 1.000000 52 44 29 1.000000
0.112232 0.437524 -0.005739 -0.766415 -0.000000 0.642345 209 173 109 1.000000
-0.016243 -0.762211 -0.253944 -0.766415 -0.000000 0.642345 178 155 97 1.000000
-0.039996 0.310238 -0.268108 -0.766415 -0.000000 0.642345 167 104 41 1.000000
-0.123862 0.029049 -0.287436 -0.766415 -0.000000 0.642345 206 178 117 1.000000
0.522373 0.152521 0.206171 0.000000 0.000000 -1.000000 75 65 42 1.000000
0.230119 -0.644302 0.052495 0.997966 -0.000000 0.063745 76 66 45 1.000000
0.331289 0.707887 0.118660 0.000000 1.000000 0.000000 91 81 57 1.000000
0.468136 -0.077092 -0.022874 -0.000000 -0.000000 1.000000 73 63 39 1.000000
-0.239673 0.626351 -0.022874 0.000000 0.000000 -1.000000 83 71 43 1.000000
-0.519624 0.486688 0.206171 -0.000000 -0.000000 1.000000 88 76 50 1.000000
0.534263 -0.276514 -0.022874 0.000000 0.000000 -1.000000 43 32 26 1.000000
-0.020424 0.707887 0.145347 0.000000 1.000000 0.000000 75 65 42 1.000000
0.186317 -0.412464 -0.012259 0.766415 0.000000 -0.642345 213 167 104 1.000000
-0.050549 0.468306 -0.294876 -0.766415 -0.000000 0.642345 208 173 117 1.000000
-0.112725 0.242743 -0.354886 0.766415 0.000000 -0.642345 202 136 74 1.000000
-0.243038 0.158937 -0.429631 -0.766415 -0.000000 0.642345 203 184 140 1.000000
-0.150901 -0.070251 -0.319697 -0.766415 -0.000000 0.642345 206 190 155 1.000000
0.170780 -0.051847 -0.030797 -0.766415 -0.000000 0.642345 207 186 141 1.000000
0.097961 -0.571798 -0.022767 0.766415 0.000000 -0.642345 204 190 151 1.000000
-0.624701 -0.199518 0.159843 -1.000000 0.000000 0.000000 88 72 47 1.000000
-0.034585 0.494044 -0.275829 -0.766415 -0.000000 0.642345 211 195 157 1.000000
0.127062 -0.106859 0.011955 0.766415 0.000000 -0.642345 204 169 117 1.000000
0.171046 -0.781762 -0.010319 -0.000000 1.000000 0.000000 170 176 204 1.000000
0.177120 0.573509 0.206171 -0.000000 -0.000000 1.000000 85 76 49 1.000000
0.191016 0.532772 0.116509 0.000000 1.000000 0.000000 75 65 42 1.000000
0.544138 -0.540691 0.080660 -1.000000 0.000000 0.000000 64 56 42 1.000000
-0.216228 -0.058253 -0.486687 -0.642345 0.000000 -0.766415 194 166 114 1.000000
-0.227512 -0.471600 -0.411105 0.766415 0.000000 -0.642345 205 167 108 1.000000
0.544138 -0.779970 0.097333 -1.000000 0.000000 0.000000 64 54 33 1.000000
-0.070711 -0.014348 -0.224019 0.766415 0.000000 -0.642345 199 169 119 1.000000
-0.624701 0.146506 0.198294 -1.000000 0.000000 0.000000 78 68 47 1.000000
0.353784 -0.342227 0.206171 -0.000000 -0.000000 1.000000 75 65 42 1.000000
0.229950 0.335819 0.053876 -0.994105 0.000000 -0.108426 70 60 39 1.000000
0.087518 -0.441812 -0.035227 0.766415 0.000000 -0.642345 206 175 109 1.000000
0.003884 0.647077 0.206171 0.000000 0.000000 -1.000000 70 62 38 1.000000
0.371001 -0.781762 0.073167 -0.000000 -1.000000 -0.000000 255 255 255 1.000000
0.215707 0.314704 0.027222 0.642345 -0.000000 0.766415 170 176 204 1.000000
0.544138 0.646145 0.081854 1.000000 0.000000 0.000000 75 64 46 1.000000
0.544138 -0.574925 0.101744 1.000000 0.000000 0.000000 73 65 40 1.000000
0.056684 -0.690457 -0.072016 -0.766415 -0.000000 0.642345 199 162 103 1.000000
-0.031348 0.340393 -0.177052 -0.766415 -0.000000 0.642345 208 176 123 1.000000
0.172273 -0.289389 0.063625 0.642345 -0.000000 0.766415 170 176 204 1.000000
0.088893 0.296935 -0.114325 0.766415 0.000000 -0.642345 156 99 42 1.000000
0.291442 0.029975 0.206171 0.000000 0.000000 -1.000000 84 74 50 1.000000
-0.037372 0.204434 -0.241243 -0.766415 -0.000000 0.642345 167 100 35 1.000000
-0.111024 -0.536905 -0.352856 0.766415 0.000000 -0.642345 179 101 23 1.000000
0.119307 0.275452 0.002703 0.766415 0.000000 -0.642345 208 188 149 1.000000
0.273404 0.208882 0.170147 -1.000000 0.000000 0.000000 83 73 52 1.000000
-0.113276 -0.260324 -0.355543 0.766415 0.000000 -0.642345 114 73 33 1.000000
-0.034841 0.452717 -0.276134 0.766415 0.000000 -0.642345 203 171 121 1.000000
-0.542855 0.585693 0.206171 0.000000 0.000000 -1.000000 83 65 47 1.000000
0.178481 0.214414 -0.021608 0.766415 0.000000 -0.642345 209 199 160 1.000000
-0.063453 0.341225 -0.296096 -0.766415 -0.000000 0.642345 153 109 71 1.000000
-0.430309 0.707887 0.172682 0.000000 -1.000000 -0.000000 76 67 46 1.000000
0.544138 0.364034 0.069065 -1.000000 0.000000 0.000000 38 30 13 1.000000
-0.023906 -0.781762 -0.187889 -0.000000 1.000000 0.000000 170 176 204 1.000000
-0.030028 -0.513864 -0.175477 0.766415 0.000000 -0.642345 210 170 105 1.000000
0.002916 0.157387 -0.136169 -0.766415 -0.000000 0.642345 201 175 136 1.000000
-0.242766 -0.580774 -0.429306 -0.766415 -0.000000 0.642345 211 171 108 1.000000
-0.017335 0.098265 -0.197653 -0.766415 -0.000000 0.642345 209 177 124 1.000000
0.166805 0.532772 0.175594 0.000000 1.000000 0.000000 34 28 16 1.000000
-0.570451 0.707887 0.186139 0.000000 -1.000000 -0.000000 73 62 46 1.000000
0.211793 -0.411533 0.030503 -0.642345 0.000000 -0.766415 255 255 255 1.000000
0.371479 -0.781762 0.007167 -0.000000 -1.000000 -0.000000 255 255 255 1.000000
0.290760 -0.060461 0.206171 0.000000 0.000000 -1.000000 74 64 43 1.000000
0.391674 0.058469 -0.018673 -0.000000 -0.000000 -1.000000 30 30 30 1.000000
-0.624701 -0.535204 0.008867 -1.000000 0.000000 0.000000 54 48 38 1.000000
-0.075255 -0.569600 -0.310178 -0.766415 -0.000000 0.642345 186 132 80 1.000000
-0.137084 0.085618 -0.398125 0.766415 0.000000 -0.642345 206 164 104 1.000000
-0.624701 0.425042 0.029702 -1.000000 0.000000 0.000000 84 74 53 1.000000
0.086855 -0.032237 -0.116756 0.766415 0.000000 -0.642345 145 90 35 1.000000
-0.050811 0.158100 -0.269443 -0.766415 -0.000000 0.642345 208 167 107 1.000000
-0.510620 0.054488 0.151775 -1.000000 0.000000 0.000000 86 76 53 1.000000
0.195433 -0.603822 -0.001382 -0.766415 -0.000000 0.642345 214 189 154 1.000000
0.204622 -0.525704 0.009582 0.766415 0.000000 -0.642345 208 176 123 1.000000
0.308610 0.220733 0.206171 0.000000 0.000000 -1.000000 86 77 50 1.000000
-0.547802 0.011265 -0.022874 -0.000000 -0.000000 1.000000 69 59 38 1.000000
-0.510620 -0.381925 0.125858 1.000000 0.000000 0.000000 69 61 46 1.000000
-0.549574 -0.455426 -0.022874 0.000000 0.000000 -1.000000 32 22 19 1.000000
0.215976 0.707887 0.003776 0.000000 -1.000000 -0.000000 76 66 45 1.000000
0.147464 0.229475 0.036297 0.766415 0.000000 -0.642345 181 155 108 1.000000
-0.624701 -0.125787 0.047129 1.000000 0.000000 0.000000 93 83 60 1.000000
0.204381 -0.301365 0.036715 0.642345 -0.000000 0.766415 170 176 204 1.000000
0.052467 -0.477470 -0.077048 0.766415 0.000000 -0.642345 204 178 129 1.000000
-0.624701 0.669932 0.163901 1.000000 0.000000 0.000000 86 77 50 1.000000
-0.576055 -0.007430 -0.022874 -0.000000 -0.000000 1.000000 46 42 27 1.000000
0.493932 0.627207 -0.022874 0.000000 0.000000 -1.000000 82 70 44 1.000000
-0.087793 -0.138862 -0.325138 -0.766415 -0.000000 0.642345 157 82 31 1.000000
-0.510620 -0.448418 0.127009 1.000000 0.000000 0.000000 67 58 37 1.000000
0.273404 -0.561875 0.141987 1.000000 0.000000 0.000000 56 45 31 1.000000
-0.624701 0.343793 0.056237 1.000000 0.000000 0.000000 70 63 43 1.000000
0.116570 -0.144489 -0.082614 0.642345 -0.000000 0.766415 0 0 0 1.000000
-0.624701 0.040528 0.205383 1.000000 0.000000 0.000000 80 70 49 1.000000
-0.624701 0.315966 0.086687 1.000000 0.000000 0.000000 60 55 37 1.000000
0.122360 0.630820 -0.022874 0.000000 0.000000 -1.000000 46 41 25 1.000000
-0.165379 -0.056114 -0.449085 -0.000000 -1.000000 0.000000 141 141 141 1.000000
0.405602 0.707887 0.157498 0.000000 -1.000000 -0.000000 84 74 53 1.000000
-0.192040 0.344176 -0.463697 0.766415 0.000000 -0.642345 206 171 103 1.000000
-0.072351 -0.596556 -0.225975 -0.766415 -0.000000 0.642345 209 194 159 1.000000
-0.510620 0.138600 0.034148 -1.000000 0.000000 0.000000 68 57 39 1.000000
-0.035663 0.707887 0.051394 0.000000 -1.000000 -0.000000 73 64 45 1.000000
-0.241148 -0.392836 -0.465801 -0.642345 0.000000 -0.766415 188 158 110 1.000000
0.273404 0.515337 0.123063 -1.000000 0.000000 0.000000 76 66 45 1.000000
-0.033068 0.059074 -0.179104 -0.766415 -0.000000 0.642345 204 175 119 1.000000
0.273404 -0.643619 0.087554 1.000000 0.000000 0.000000 78 68 47 1.000000
-0.225772 -0.709176 -0.478688 -0.642345 0.000000 -0.766415 184 149 97 1.000000
0.544138 -0.212931 0.188306 -1.000000 0.000000 0.000000 68 59 38 1.000000
0.043262 0.208741 -0.088031 -0.766415 -0.000000 0.642345 191 165 116 1.000000
0.422273 -0.277056 0.206171 0.000000 0.000000 -1.000000 86 76 53 1.000000
-0.464032 0.677838 0.206171 0.000000 0.000000 -1.000000 80 67 47 1.000000
-0.574238 0.071860 0.206171 -0.000000 -0.000000 1.000000 69 60 43 1.000000
0.395347 0.525423 -0.022874 0.000000 0.000000 -1.000000 82 72 51 1.000000
0.172575 -0.301101 -0.028655 -0.766415 -0.000000 0.642345 208 187 142 1.000000
-0.224278 -0.678860 -0.407247 -0.766415 -0.000000 0.642345 189 165 115 1.000000
0.544138 -0.056700 0.047393 1.000000 0.000000 0.000000 75 65 44 1.000000
-0.624701 0.361487 0.182610 -1.000000 0.000000 0.000000 78 68 47 1.000000
-0.624701 0.552347 0.184750 1.000000 0.000000 0.000000 72 62 41 1.000000
0.515006 -0.532494 0.206171 0.000000 0.000000 -1.000000 75 65 44 1.000000
0.193409 -0.015522 -0.003797 -0.766415 -0.000000 0.642345 209 184 132 1.000000
0.477639 0.519914 -0.022874 0.000000 0.000000 -1.000000 75 65 44 1.000000
-0.551883 0.066280 0.206171 0.000000 0.000000 -1.000000 62 58 45 1.000000
-0.018032 -0.273354 -0.198485 0.766415 0.000000 -0.642345 201 176 123 1.000000
0.543091 -0.013624 -0.022874 -0.000000 -0.000000 1.000000 77 67 44 1.000000
-0.624701 -0.274649 0.156897 1.000000 0.000000 0.000000 90 81 54 1.000000
-0.545837 0.371795 -0.022874 -0.000000 -0.000000 1.000000 26 16 13 1.000000
0.156648 -0.777578 -0.047659 0.766415 0.000000 -0.642345 193 167 118 1.000000
-0.067670 0.532772 0.005850 0.000000 1.000000 0.000000 73 65 41 1.000000
0.108385 0.532772 0.041979 0.000000 -1.000000 -0.000000 66 62 39 1.000000
-0.553597 -0.545667 -0.022874 -0.000000 -0.000000 1.000000 67 58 37 1.000000
0.380964 0.360816 -0.022874 -0.000000 -0.000000 1.000000 79 69 48 1.000000
-0.565289 0.707887 0.094841 0.000000 -1.000000 -0.000000 89 76 54 1.000000
0.152864 0.086689 -0.052174 -0.766415 -0.000000 0.642345 210 171 116 1.000000
-0.599493 -0.781762 -0.020816 -0.000000 1.000000 0.000000 170 176 204 1.000000
0.385245 0.604965 0.206171 0.000000 0.000000 -1.000000 73 63 42 1.000000
0.544138 -0.334934 0.005210 -1.000000 0.000000 0.000000 69 58 42 1.000000
0.273404 -0.693282 0.173665 -1.000000 0.000000 0.000000 87 77 53 1.000000
0.128473 0.207588 0.013639 -0.766415 -0.000000 0.642345 208 174 114 1.000000
0.273404 -0.128428 0.140349 -1.000000 0.000000 0.000000 63 54 47 1.000000
0.038988 0.375618 -0.173869 0.766415 0.000000 -0.642345 127 67 3 1.000000
-0.624701 0.228738 0.028013 1.000000 0.000000 0.000000 77 68 47 1.000000
0.360771 0.497034 -0.022874 -0.000000 -0.000000 1.000000 64 53 35 1.000000
0.544138 0.494770 0.010679 1.000000 0.000000 0.000000 72 61 43 1.000000
-0.624701 -0.236880 0.149357 -1.000000 0.000000 0.000000 53 45 31 1.000000
0.131380 0.411520 0.017107 -0.766415 -0.000000 0.642345 209 175 116 1.000000
-0.057662 0.491674 -0.208448 0.766415 0.000000 -0.642345 206 189 147 1.000000
0.301829 -0.781762 0.084429 -0.000000 -1.000000 -0.000000 255 255 255 1.000000
-0.510620 -0.016496 0.083424 -1.000000 0.000000 0.000000 73 63 40 1.000000
-0.510620 -0.064289 0.042030 1.000000 0.000000 0.000000 66 56 35 1.000000
-0.200553 0.532772 0.088952 0.000000 -1.000000 -0.000000 77 67 46 1.000000
0.500398 -0.738073 -0.022874 -0.000000 -0.000000 1.000000 90 80 59 1.000000
0.200021 -0.457360 0.081583 0.027847 -0.000000 0.999612 66 56 42 1.000000
-0.019963 -0.636826 -0.258382 -0.766415 -0.000000 0.642345 207 181 132 1.000000
0.111487 -0.764442 -0.101542 -0.766415 -0.000000 0.642345 206 187 141 1.000000
-0.197688 -0.220230 -0.375520 0.766415 0.000000 -0.642345 199 173 126 1.000000
0.466994 -0.555133 -0.022874 0.000000 0.000000 -1.000000 36 30 18 1.000000
-0.175088 0.319233 -0.443470 -0.766415 -0.000000 0.642345 214 188 151 1.000000
-0.588525 0.046948 0.206171 -0.000000 -0.000000 1.000000 65 58 38 1.000000
0.220577 0.233814 0.073056 -0.688907 0.000000 -0.724849 69 59 45 1.000000
-0.510620 0.112034 0.193332 -1.000000 0.000000 0.000000 72 64 40 1.000000
0.544138 -0.610473 0.091787 -1.000000 0.000000 0.000000 87 77 54 1.000000
-0.624701 -0.401992 0.182584 -1.000000 0.000000 0.000000 69 58 42 1.000000
0.077169 0.673730 0.206171 0.000000 0.000000 -1.000000 84 76 52 1.000000
0.544138 0.273156 0.172449 -1.000000 0.000000 0.000000 73 63 42 1.000000
-0.079008 0.246010 -0.233918 0.766415 0.000000 -0.642345 194 169 117 1.000000
0.185064 0.192111 0.052905 0.642345 -0.000000 0.766415 170 176 204 1.000000
-0.144815 0.112324 -0.312435 0.766415 0.000000 -0.642345 204 165 96 1.000000
-0.324661 0.658055 -0.022874 -0.000000 -0.000000 1.000000 78 67 49 1.000000
-0.607225 0.621639 0.206171 0.000000 0.000000 -1.000000 44 34 20 1.000000
0.213702 -0.141862 0.028902 0.642345 -0.000000 0.766415 170 176 204 1.000000
0.544138 -0.554927 0.032729 1.000000 0.000000 0.000000 65 55 34 1.000000
-0.554594 0.113426 -0.022874 0.000000 0.000000 -1.000000 58 50 33 1.000000
-0.573855 0.685584 -0.022874 0.000000 0.000000 -1.000000 75 64 46 1.000000
-0.552195 0.707887 0.073063 0.000000 1.000000 0.000000 77 67 46 1.000000
-0.328644 0.532772 0.113105 0.000000 -1.000000 -0.000000 82 70 46 1.000000
-0.131055 0.025775 -0.390932 -0.766415 -0.000000 0.642345 207 175 115 1.000000
0.157527 0.644278 0.206171 0.000000 0.000000 -1.000000 74 64 41 1.000000
-0.510620 -0.074641 0.006571 -1.000000 0.000000 0.000000 93 83 62 1.000000
-0.134966 -0.279956 -0.395598 -0.766415 -0.000000 0.642345 221 199 161 1.000000
0.178854 0.183098 -0.021164 0.766415 0.000000 -0.642345 207 172 126 1.000000
0.023551 0.171801 -0.111549 -0.766415 -0.000000 0.642345 206 185 144 1.000000
0.373433 -0.781762 0.050450 -0.000000 -1.000000 -0.000000 255 255 255 1.000000
-0.031129 0.130902 -0.214111 0.766415 0.000000 -0.642345 207 194 150 1.000000
-0.148550 0.453251 -0.316891 0.766415 0.000000 -0.642345 201 167 107 1.000000
0.321628 0.291503 -0.022874 -0.000000 -0.000000 1.000000 42 34 20 1.000000
-0.083487 0.532772 -0.266131 0.000000 1.000000 0.000000 185 159 97 1.000000
0.544138 0.484773 0.055010 1.000000 0.000000 0.000000 75 65 42 1.000000
-0.243540 0.118720 -0.430229 -0.766415 -0.000000 0.642345 215 205 165 1.000000
0.544138 -0.567323 0.181429 -1.000000 0.000000 0.000000 71 61 40 1.000000
0.544138 -0.735109 0.038915 -1.000000 0.000000 0.000000 79 69 48 1.000000
-0.624701 -0.195797 0.033327 -1.000000 0.000000 0.000000 77 67 46 1.000000
0.204607 0.388442 0.009564 0.766415 0.000000 -0.642345 206 168 107 1.000000
0.332012 0.046765 -0.035476 0.000000 0.000000 -1.000000 58 58 58 1.000000
-0.219677 0.389715 -0.401758 0.766415 0.000000 -0.642345 210 201 158 1.000000
0.273404 -0.579523 0.101108 1.000000 0.000000 0.000000 69 61 37 1.000000
0.487776 -0.245041 -0.022874 0.000000 0.000000 -1.000000 43 33 20 1.000000
0.035711 0.532772 -0.126402 0.000000 1.000000 0.000000 206 172 112 1.000000
0.064537 0.189944 -0.143384 -0.766415 -0.000000 0.642345 160 101 45 1.000000
0.273404 -0.093719 0.067620 -1.000000 0.000000 0.000000 53 44 33 1.000000
0.544138 -0.099301 0.054549 1.000000 0.000000 0.000000 69 60 39 1.000000
-0.167759 0.481813 -0.339811 -0.766415 -0.000000 0.642345 206 188 154 1.000000
0.165903 0.347560 0.058299 0.766415 0.000000 -0.642345 206 195 155 1.000000
0.364884 -0.138386 -0.022874 -0.000000 -0.000000 1.000000 94 84 61 1.000000
-0.258122 0.472496 -0.451575 0.642345 -0.000000 0.766415 195 179 132 1.000000
-0.557692 0.164686 0.206171 -0.000000 -0.000000 1.000000 76 66 45 1.000000
-0.382928 0.532772 0.025293 0.000000 -1.000000 -0.000000 62 51 35 1.000000
-0.029200 0.444244 -0.174489 -0.766415 -0.000000 0.642345 210 175 123 1.000000
-0.363909 0.532772 0.098430 0.000000 -1.000000 -0.000000 84 74 53 1.000000
-0.501057 0.610310 -0.022874 0.000000 0.000000 -1.000000 76 63 43 1.000000
-0.248994 -0.233669 -0.459225 0.642345 -0.000000 0.766415 214 185 133 1.000000
0.003291 0.532772 0.041834 0.000000 -1.000000 -0.000000 89 74 55 1.000000
-0.004288 0.532772 0.088181 0.000000 1.000000 0.000000 58 48 34 1.000000
-0.204010 -0.654295 -0.383064 -0.766415 -0.000000 0.642345 208 175 122 1.000000
0.011713 -0.525744 -0.194842 -0.766415 -0.000000 0.642345 209 185 137 1.000000
-0.167948 -0.224439 -0.434950 -0.766415 -0.000000 0.642345 209 174 118 1.000000
0.544138 -0.480090 0.186049 -1.000000 0.000000 0.000000 58 46 36 1.000000
-0.122989 -0.558571 -0.381307 0.766415 0.000000 -0.642345 210 183 128 1.000000
-0.256260 -0.544498 -0.445406 0.766415 0.000000 -0.642345 209 168 108 1.000000
0.272457 0.532772 0.002852 0.000000 -1.000000 -0.000000 73 63 40 1.000000
-0.062928 0.498629 -0.309646 -0.766415 -0.000000 0.642345 210 176 117 1.000000
0.287367 -0.781762 0.025605 0.000000 1.000000 0.000000 170 176 204 1.000000
-0.603555 0.131053 -0.022874 0.000000 0.000000 -1.000000 80 70 49 1.000000
-0.171851 -0.123881 -0.439607 0.766415 0.000000 -0.642345 208 188 149 1.000000
0.273404 -0.472336 0.069728 1.000000 0.000000 0.000000 89 76 54 1.000000
0.128292 -0.700951 -0.081492 -0.766415 -0.000000 0.642345 208 173 117 1.000000
0.442184 -0.699757 0.206171 -0.000000 -0.000000 1.000000 92 80 46 1.000000
0.031215 0.560625 -0.022874 -0.000000 -0.000000 1.000000 67 58 37 1.000000
-0.600029 -0.053274 -0.022874 -0.000000 -0.000000 1.000000 68 58 37 1.000000
0.137611 0.569954 0.206171 -0.000000 -0.000000 1.000000 68 57 41 1.000000
0.273404 -0.349602 0.165815 -1.000000 0.000000 0.000000 75 64 46 1.000000
-0.510620 0.148198 0.066071 -1.000000 0.000000 0.000000 75 64 46 1.000000
-0.260324 0.532772 0.071502 0.000000 -1.000000 -0.000000 77 66 48 1.000000
0.223172 -0.601108 0.030751 -0.790437 -0.000000 0.612543 69 59 38 1.000000
-0.110538 0.202347 -0.352276 0.766415 0.000000 -0.642345 171 117 69 1.000000
0.273404 0.337478 0.174990 -1.000000 0.000000 0.000000 34 29 21 1.000000
-0.510620 -0.397118 0.161872 -1.000000 0.000000 0.000000 90 81 52 1.000000
0.006038 0.521069 -0.132445 -0.766415 -0.000000 0.642345 188 164 102 1.000000
-0.624701 -0.013237 0.191988 1.000000 0.000000 0.000000 75 65 42 1.000000
-0.624701 0.384640 0.122246 1.000000 0.000000 0.000000 89 76 54 1.000000
0.273404 0.042716 0.180839 -1.000000 0.000000 0.000000 88 79 52 1.000000
0.207160 -0.271800 0.012610 0.766415 0.000000 -0.642345 180 159 98 1.000000
-0.624701 -0.495393 0.144996 1.000000 0.000000 0.000000 82 71 55 1.000000
-0.598984 -0.576776 -0.022874 0.000000 0.000000 -1.000000 78 65 43 1.000000
-0.624701 -0.491882 0.012651 -1.000000 0.000000 0.000000 75 62 42 1.000000
-0.546413 -0.624907 0.206171 0.000000 0.000000 -1.000000 65 56 45 1.000000
-0.510620 0.207671 0.043735 1.000000 0.000000 0.000000 78 68 47 1.000000
-0.614312 -0.538758 -0.022874 -0.000000 -0.000000 1.000000 73 63 42 1.000000
-0.576851 -0.460757 0.206171 0.000000 0.000000 -1.000000 69 60 41 1.000000
0.348355 0.381279 -0.022874 -0.000000 -0.000000 1.000000 55 47 33 1.000000
0.273404 -0.151299 0.082611 1.000000 0.000000 0.000000 84 74 53 1.000000
0.190306 -0.152815 -0.007499 -0.766415 -0.000000 0.642345 216 206 166 1.000000
0.510274 0.707887 0.077841 0.000000 1.000000 0.000000 68 58 45 1.000000
-0.194655 -0.496182 -0.466816 -0.766415 -0.000000 0.642345 209 173 111 1.000000
-0.624701 -0.379737 0.080844 1.000000 0.000000 0.000000 70 61 40 1.000000
0.402353 -0.081360 -0.022874 0.000000 0.000000 -1.000000 79 69 48 1.000000
0.273404 -0.286717 0.162760 -1.000000 0.000000 0.000000 67 62 44 1.000000
0.277580 -0.544068 -0.022874 0.000000 0.000000 -1.000000 62 53 36 1.000000
0.298166 0.048672 -0.022874 0.000000 0.000000 -1.000000 67 58 39 1.000000
-0.025450 0.532772 0.103153 0.000000 -1.000000 -0.000000 69 58 42 1.000000
0.452432 -0.781762 0.124898 0.000000 1.000000 0.000000 170 176 204 1.000000
-0.624701 0.151997 0.157053 -1.000000 0.000000 0.000000 55 47 32 1.000000
0.156147 0.203146 -0.048256 0.766415 0.000000 -0.642345 204 192 156 1.000000
-0.510620 0.279176 0.152573 1.000000 0.000000 0.000000 91 79 55 1.000000
-0.607976 0.137459 0.206171 0.000000 0.000000 -1.000000 83 73 49 1.000000
0.048293 0.371661 -0.082028 -0.766415 -0.000000 0.642345 216 202 163 1.000000
-0.127483 0.532772 0.076745 0.000000 1.000000 0.000000 81 68 50 1.000000
0.040252 -0.566016 -0.091622 0.766415 0.000000 -0.642345 200 172 121 1.000000
-0.007834 0.613720 0.206171 -0.000000 -0.000000 1.000000 71 60 44 1.000000
0.273404 0.424717 0.103279 -1.000000 0.000000 0.000000 72 63 42 1.000000
0.095500 0.226238 -0.106441 0.766415 0.000000 -0.642345 142 87 45 1.000000
-0.593621 -0.781762 0.098874 0.000000 -1.000000 -0.000000 255 255 255 1.000000
-0.073549 0.635285 -0.022874 0.000000 0.000000 -1.000000 81 71 48 1.000000
-0.254735 0.669996 -0.022874 0.000000 0.000000 -1.000000 69 61 44 1.000000
0.107011 -0.185130 -0.011968 -0.766415 -0.000000 0.642345 208 182 137 1.000000
0.544138 -0.610354 0.200197 -1.000000 0.000000 0.000000 58 48 34 1.000000
0.302204 -0.168577 -0.022874 -0.000000 -0.000000 1.000000 77 67 46 1.000000
-0.139224 0.532772 0.116665 0.000000 1.000000 0.000000 75 65 42 1.000000
-0.441021 0.556395 0.206171 -0.000000 -0.000000 1.000000 75 66 47 1.000000
0.497277 0.198671 -0.022874 0.000000 0.000000 -1.000000 60 50 36 1.000000
-0.249859 0.645425 -0.022874 0.000000 0.000000 -1.000000 74 64 41 1.000000
-0.241535 -0.480833 -0.427837 -0.766415 -0.000000 0.642345 214 200 162 1.000000
-0.579083 0.410940 0.206171 -0.000000 -0.000000 1.000000 63 53 40 1.000000
-0.521907 0.707887 0.090246 0.000000 -1.000000 -0.000000 88 76 52 1.000000
0.022525 -0.685951 -0.207688 -0.766415 -0.000000 0.642345 209 184 140 1.000000
-0.115805 0.568282 0.206171 0.000000 0.000000 -1.000000 67 57 36 1.000000
-0.106578 0.532772 0.150897 0.000000 -1.000000 -0.000000 70 59 43 1.000000
-0.087962 0.270938 -0.325339 0.766415 0.000000 -0.642345 153 73 22 1.000000
0.218324 0.333488 0.075108 -0.614781 0.000000 -0.788698 89 75 53 1.000000
0.130353 -0.200355 0.015882 0.766415 0.000000 -0.642345 211 170 112 1.000000
-0.164462 -0.159370 -0.335878 -0.766415 -0.000000 0.642345 209 190 144 1.000000
-0.226350 -0.179225 -0.409719 -0.766415 -0.000000 0.642345 201 168 113 1.000000
0.092259 0.532772 -0.001427 0.000000 -1.000000 -0.000000 65 56 37 1.000000
-0.253635 0.200565 -0.455336 0.642345 -0.000000 0.766415 193 171 118 1.000000
0.527088 0.344955 -0.022874 0.000000 0.000000 -1.000000 76 66 43 1.000000
0.517019 -0.248966 -0.022874 -0.000000 -0.000000 1.000000 78 68 45 1.000000
0.055873 0.532772 0.135493 0.000000 1.000000 0.000000 68 57 41 1.000000
0.290836 -0.247888 0.206171 -0.000000 -0.000000 1.000000 69 59 36 1.000000
-0.169821 -0.477906 -0.342271 -0.766415 -0.000000 0.642345 211 179 128 1.000000
0.299344 0.707887 0.065065 0.000000 -1.000000 -0.000000 75 65 44 1.000000
-0.091479 -0.379771 -0.329536 0.766415 0.000000 -0.642345 140 95 42 1.000000
-0.613765 0.599010 -0.022874 0.000000 0.000000 -1.000000 77 67 46 1.000000
0.015021 -0.590423 -0.202465 -0.766415 -0.000000 0.642345 190 116 29 1.000000
-0.537324 0.540927 0.206171 0.000000 0.000000 -1.000000 66 62 39 1.000000
-0.352459 0.555544 0.206171 -0.000000 -0.000000 1.000000 77 67 43 1.000000
0.146279 0.370089 -0.060030 0.766415 0.000000 -0.642345 207 170 112 1.000000
0.544138 -0.635296 0.154722 1.000000 0.000000 0.000000 75 64 48 1.000000
0.413844 0.006189 -0.018673 -0.000000 -0.000000 -1.000000 30 30 30 1.000000
-0.624701 0.660349 0.195696 1.000000 0.000000 0.000000 70 59 43 1.000000
0.003093 0.197399 -0.135959 0.766415 0.000000 -0.642345 220 199 158 1.000000
-0.036527 -0.151865 -0.220552 0.766415 0.000000 -0.642345 212 172 107 1.000000
0.544138 -0.713064 0.013224 1.000000 0.000000 0.000000 75 66 39 1.000000
0.175188 -0.362882 0.070272 0.746991 0.000000 -0.664834 68 57 39 1.000000
0.514842 0.426383 0.206171 0.000000 0.000000 -1.000000 71 61 40 1.000000
0.075183 -0.020484 -0.130682 0.766415 0.000000 -0.642345 177 119 70 1.000000
0.544138 0.282243 0.054188 1.000000 0.000000 0.000000 68 57 41 1.000000
0.135319 0.320935 -0.073108 -0.766415 -0.000000 0.642345 196 172 124 1.000000
-0.624701 -0.704181 0.141563 1.000000 0.000000 0.000000 77 65 39 1.000000
0.033749 0.434016 -0.099382 -0.766415 -0.000000 0.642345 205 167 106 1.000000
0.544138 -0.749228 0.067635 -1.000000 0.000000 0.000000 81 71 47 1.000000
-0.071185 0.468053 -0.224583 0.766415 0.000000 -0.642345 207 173 114 1.000000
-0.527093 0.707887 0.051016 0.000000 1.000000 0.000000 74 65 46 1.000000
0.273404 -0.672610 -0.002281 -1.000000 0.000000 0.000000 65 61 38 1.000000
-0.152269 -0.103824 -0.416243 0.766415 0.000000 -0.642345 214 182 132 1.000000
0.193130 -0.505004 0.081211 -0.192626 -0.000000 0.981272 74 64 43 1.000000
-0.578105 0.442417 -0.022874 -0.000000 -0.000000 1.000000 73 60 42 1.000000
0.408270 -0.379051 0.206171 0.000000 0.000000 -1.000000 70 61 40 1.000000
0.273404 -0.679311 0.091752 -1.000000 0.000000 0.000000 54 46 29 1.000000
0.422120 -0.663959 0.206171 0.000000 0.000000 -1.000000 84 71 49 1.000000
0.105757 0.707887 0.041354 0.000000 1.000000 0.000000 61 56 40 1.000000
-0.578333 0.526766 0.206171 0.000000 0.000000 -1.000000 75 65 42 1.000000
-0.438952 0.631747 -0.022874 -0.000000 -0.000000 1.000000 92 82 61 1.000000
-0.137908 -0.725832 -0.399108 -0.766415 -0.000000 0.642345 206 166 103 1.000000
-0.410491 0.626200 0.206171 -0.000000 -0.000000 1.000000 57 49 35 1.000000
-0.283912 0.707887 0.113565 0.000000 1.000000 0.000000 70 60 39 1.000000
-0.510620 0.004464 0.026751 -1.000000 0.000000 0.000000 73 62 44 1.000000
-0.141052 0.231818 -0.307945 0.766415 0.000000 -0.642345 205 172 109 1.000000
0.511152 -0.207659 -0.022874 0.000000 0.000000 -1.000000 26 16 13 1.000000
0.533285 0.633488 -0.022874 0.000000 0.000000 -1.000000 72 61 43 1.000000
0.544138 -0.316024 0.134693 -1.000000 0.000000 0.000000 75 65 44 1.000000
0.513838 -0.663064 -0.022874 -0.000000 -0.000000 1.000000 68 58 37 1.000000
-0.090723 -0.347701 -0.328633 0.766415 0.000000 -0.642345 181 126 81 1.000000
-0.114325 -0.413795 -0.356795 0.766415 0.000000 -0.642345 133 79 29 1.000000
0.273404 -0.603611 0.151878 1.000000 0.000000 0.000000 77 67 43 1.000000
-0.618018 0.306474 -0.022874 -0.000000 -0.000000 1.000000 80 70 49 1.000000
-0.510620 -0.373380 0.200064 1.000000 0.000000 0.000000 66 57 36 1.000000
0.148146 -0.269551 -0.057803 0.766415 0.000000 -0.642345 207 190 158 1.000000
0.519776 0.353501 0.206171 0.000000 0.000000 -1.000000 84 75 54 1.000000
-0.510620 -0.451822 0.094080 1.000000 0.000000 0.000000 67 62 44 1.000000
-0.611172 -0.176500 0.206171 -0.000000 -0.000000 1.000000 77 66 48 1.000000
0.526358 -0.101613 -0.022874 0.000000 0.000000 -1.000000 63 54 35 1.000000
0.353274 -0.013286 -0.022874 -0.000000 -0.000000 1.000000 74 63 45 1.000000
-0.252104 -0.258802 -0.456618 -0.642345 0.000000 -0.766415 208 189 145 1.000000
-0.280330 0.646787 0.206171 -0.000000 -0.000000 1.000000 71 61 38 1.000000
0.159268 0.485314 0.050382 -0.766415 -0.000000 0.642345 190 155 109 1.000000
-0.198961 -0.067599 -0.471954 0.766415 0.000000 -0.642345 213 181 131 1.000000
-0.243204 -0.751173 -0.429828 0.766415 0.000000 -0.642345 212 177 131 1.000000
0.289426 0.274710 -0.022874 -0.000000 -0.000000 1.000000 80 67 47 1.000000
0.036183 -0.292697 -0.096477 0.766415 0.000000 -0.642345 187 167 120 1.000000
0.059634 -0.113189 -0.149235 -0.766415 -0.000000 0.642345 112 68 27 1.000000
-0.560951 0.127801 0.206171 0.000000 0.000000 -1.000000 67 60 40 1.000000
0.492712 0.647768 -0.022874 -0.000000 -0.000000 1.000000 74 69 49 1.000000
0.091311 -0.200676 -0.111439 -0.766415 -0.000000 0.642345 187 108 40 1.000000
0.015825 0.085027 -0.183689 -0.642345 -0.000000 -0.766415 0 0 0 1.000000
-0.624701 0.477533 0.195496 -1.000000 0.000000 0.000000 73 63 42 1.000000
-0.530560 0.620622 0.206171 -0.000000 -0.000000 1.000000 85 72 50 1.000000
-0.624701 0.155216 0.034482 -1.000000 0.000000 0.000000 81 71 48 1.000000
-0.624701 -0.520112 0.143869 -1.000000 0.000000 0.000000 40 32 15 1.000000
-0.305261 0.707887 0.138336 0.000000 1.000000 0.000000 70 59 41 1.000000
0.463808 -0.212019 -0.022874 0.000000 0.000000 -1.000000 74 64 43 1.000000
-0.008169 0.349789 -0.149395 -0.766415 -0.000000 0.642345 206 195 155 1.000000
0.184350 0.497266 0.078065 0.473391 0.000000 -0.880853 73 62 44 1.000000
0.081769 0.475935 -0.042086 -0.766415 -0.000000 0.642345 211 195 157 1.000000
0.329066 -0.663877 -0.022874 -0.000000 -0.000000 1.000000 57 46 32 1.000000
-0.568608 -0.048876 -0.022874 0.000000 0.000000 -1.000000 75 65 44 1.000000
0.086962 -0.487777 -0.035891 -0.766415 -0.000000 0.642345 202 189 143 1.000000
0.145212 0.325049 0.033611 0.766415 0.000000 -0.642345 184 154 108 1.000000
