ply
format ascii 1.0
element vertex 1267
property float x
property float y
property float z
property uchar red
property uchar green
property uchar blue
end_header
0.537300 0.185456 -0.143937 153 0 76
0.226341 0.479822 0.379854 76 0 153
-0.507987 -0.032374 0.046345 153 0 76
0.163892 0.786618 0.308311 153 0 76
0.014801 -0.482049 0.379678 204 51 127
-0.486977 0.397717 -0.370548 153 0 76
-0.397738 0.700743 -0.371064 153 0 76
0.216503 -0.031848 -0.371064 153 0 76
0.097196 0.478287 -0.371064 153 0 76
-0.507987 0.348095 -0.248749 153 0 76
-0.505123 -0.765899 0.202604 153 0 76
0.181325 -0.649801 -0.371064 153 0 76
0.537191 -0.145526 -0.212339 153 0 76
0.148379 -0.462019 -0.371064 153 0 76
0.200925 0.368035 -0.371064 153 0 76
0.246700 0.786496 0.157171 153 0 76
0.537334 0.348100 0.310896 153 0 76
0.274345 -0.125230 -0.371064 153 0 76
-0.043145 -0.093275 -0.371064 153 0 76
-0.076012 0.786663 -0.058739 153 0 76
-0.507834 -0.523066 0.346326 153 0 76
-0.332003 -0.274406 -0.371064 153 0 76
-0.091095 -0.008323 -0.371064 153 0 76
-0.158782 -0.394146 0.379678 204 51 127
-0.460046 0.786830 0.294902 153 0 76
-0.507987 -0.470981 0.189469 153 0 76
0.099750 0.021674 -0.371064 153 0 76
0.537190 -0.128845 0.172603 153 0 76
-0.409501 -0.780278 -0.170366 153 0 76
-0.507987 -0.623197 -0.275789 153 0 76
-0.289401 0.786509 0.057027 153 0 76
0.329264 -0.215908 0.379678 204 51 127
0.537191 0.595307 0.080375 153 0 76
-0.144682 -0.151614 -0.371064 153 0 76
0.388545 -0.780278 -0.043542 153 0 76
0.044348 -0.037700 0.379678 204 51 127
-0.152513 0.786496 0.223352 153 0 76
0.331919 -0.780278 -0.001164 153 0 76
-0.292431 -0.780278 -0.266211 153 0 76
-0.385862 0.538432 0.388368 76 0 153
0.537191 -0.674885 0.092535 153 0 76
-0.409397 0.786496 0.014002 153 0 76
-0.381518 0.366251 0.380482 76 0 153
-0.507987 0.445057 0.164004 153 0 76
-0.421020 0.531256 -0.371064 153 0 76
0.411086 0.786496 0.172808 153 0 76
0.245197 -0.163601 -0.371064 153 0 76
0.537191 -0.007715 -0.091577 153 0 76
0.210621 -0.780278 -0.210430 153 0 76
0.211588 -0.780278 0.049980 153 0 76
0.537368 0.440617 -0.247374 153 0 76
0.015809 -0.236215 0.380013 204 51 127
0.453776 -0.386410 0.379678 204 51 127
-0.089305 -0.780278 0.222100 153 0 76
-0.234235 0.548298 -0.371064 153 0 76
0.537523 0.483403 -0.174005 153 0 76
0.537191 0.526052 0.080399 153 0 76
0.537191 -0.217625 -0.233942 153 0 76
0.406741 -0.780278 0.194996 153 0 76
0.272077 -0.278561 0.379678 204 51 127
-0.401310 -0.307536 -0.371064 153 0 76
0.534440 0.776758 -0.257073 153 0 76
0.132764 -0.290595 0.379964 204 51 127
-0.059407 0.033310 -0.371064 153 0 76
-0.507987 -0.353929 -0.126940 153 0 76
0.537191 -0.345326 -0.023178 153 0 76
0.386164 -0.422979 0.379678 204 51 127
-0.102922 0.786496 0.224093 153 0 76
-0.307987 -0.779890 -0.339257 153 0 76
0.189589 0.708192 0.379862 76 0 153
0.537188 0.447993 -0.298299 153 0 76
0.134321 -0.780278 0.224154 153 0 76
0.316378 0.786662 0.351012 153 0 76
-0.048747 -0.780277 0.324298 153 0 76
0.406241 0.188109 0.379678 76 0 153
0.537478 0.111817 0.333188 153 0 76
-0.055016 0.103852 0.379678 204 51 127
-0.244587 0.786843 0.127064 153 0 76
-0.427276 0.085562 -0.371064 153 0 76
-0.282976 -0.472748 -0.371064 153 0 76
0.430754 0.786496 0.086792 153 0 76
-0.067677 -0.662256 0.379678 204 51 127
-0.003863 -0.780278 -0.172350 153 0 76
-0.441840 -0.231879 0.405142 0 0 255
-0.507987 0.193004 0.197234 153 0 76
0.113822 -0.567040 0.379678 204 51 127
0.187121 0.786660 -0.081277 153 0 76
-0.507987 -0.531124 0.172420 153 0 76
0.481260 0.469459 0.379864 76 0 153
0.407587 -0.779912 0.349103 153 0 76
-0.498018 -0.258468 0.377013 153 0 76
0.086337 -0.777614 -0.352501 153 0 76
-0.270564 0.786626 0.309078 153 0 76
-0.507793 0.328306 -0.340832 153 0 76
-0.507987 -0.418335 0.069717 153 0 76
-0.084157 -0.120356 0.380040 204 51 127
-0.336630 -0.780278 0.030331 153 0 76
0.250709 -0.309777 -0.371064 153 0 76
-0.462539 0.349702 -0.371051 153 0 76
0.537532 -0.082213 0.036649 153 0 76
0.439383 -0.049351 0.379678 204 51 127
0.460174 0.786660 0.295561 153 0 76
-0.333471 -0.780278 0.205315 153 0 76
0.487834 -0.535168 0.379924 204 51 127
0.413445 0.423020 -0.371064 153 0 76
-0.230300 0.786496 -0.155384 153 0 76
0.283374 0.071297 -0.371064 153 0 76
-0.507987 -0.218135 -0.251970 153 0 76
0.134802 -0.537261 -0.371064 153 0 76
0.016827 0.786821 -0.001933 153 0 76
0.537191 -0.422860 0.064740 153 0 76
0.537191 0.051472 -0.127532 153 0 76
-0.027276 0.786826 0.330155 153 0 76
-0.226923 -0.629731 0.379678 204 51 127
-0.507869 0.726573 0.339857 153 0 76
0.055704 -0.780278 0.268267 153 0 76
0.537191 0.125699 -0.277575 153 0 76
0.093403 0.527849 0.380033 76 0 153
0.450940 0.284747 0.380011 76 0 153
0.215020 0.061556 0.379678 204 51 127
-0.067459 0.247745 -0.371064 153 0 76
0.285479 0.786661 -0.341037 153 0 76
-0.158222 0.345027 0.380024 76 0 153
0.456891 -0.780278 0.118148 153 0 76
-0.396413 0.473357 -0.371064 153 0 76
-0.211162 0.701602 -0.371064 153 0 76
0.334671 0.786496 0.066915 153 0 76
-0.031877 0.786871 -0.034104 153 0 76
0.127577 -0.660453 -0.371064 153 0 76
-0.149068 0.760780 0.378807 76 0 153
-0.218182 0.338250 -0.371064 153 0 76
0.384597 0.584720 -0.371064 153 0 76
0.299748 -0.780278 -0.066915 153 0 76
0.194709 -0.780277 -0.320648 153 0 76
0.346303 -0.421657 -0.371064 153 0 76
0.537191 0.245439 0.008749 153 0 76
0.417936 -0.780278 0.116589 153 0 76
-0.507716 -0.738759 0.040906 153 0 76
0.277860 -0.780200 0.333693 153 0 76
-0.195485 -0.780278 0.006366 153 0 76
0.537191 -0.508288 -0.238835 153 0 76
0.386242 0.112904 0.379678 204 51 127
-0.268972 -0.743831 -0.370851 153 0 76
0.537611 -0.606334 0.277734 153 0 76
0.241902 -0.600209 0.379908 204 51 127
-0.363841 -0.336003 0.380391 204 51 127
-0.344688 0.786829 0.231706 153 0 76
0.337633 0.583739 -0.371064 153 0 76
0.497554 0.224443 -0.370981 153 0 76
0.537191 0.597580 -0.095939 153 0 76
-0.085842 -0.780177 -0.325944 153 0 76
0.537191 0.447348 0.098418 153 0 76
0.324436 0.422804 -0.371064 153 0 76
-0.485127 0.786137 -0.008806 153 0 76
0.129060 -0.780278 0.291018 153 0 76
-0.315920 -0.780278 -0.190356 153 0 76
0.537294 0.580522 -0.323917 153 0 76
0.537638 0.661703 -0.256885 153 0 76
-0.431003 -0.174483 -0.371064 153 0 76
-0.366507 0.236916 0.380617 76 0 153
0.353532 -0.111609 -0.371064 153 0 76
-0.015869 -0.247298 -0.371064 153 0 76
0.233707 -0.681710 0.379678 204 51 127
-0.507987 -0.470200 -0.126437 153 0 76
0.537243 -0.292155 0.250644 153 0 76
0.537191 -0.706941 -0.268099 153 0 76
0.259468 -0.210620 0.379678 204 51 127
-0.507987 0.373807 -0.191901 153 0 76
0.537365 0.064978 0.344301 153 0 76
0.237299 -0.586444 -0.371064 153 0 76
-0.028857 0.213250 -0.371064 153 0 76
0.123757 -0.141464 0.379678 204 51 127
0.537191 0.625452 0.000334 153 0 76
-0.507922 0.220844 0.336192 153 0 76
-0.507819 -0.730193 0.269447 153 0 76
-0.507987 -0.677423 0.199555 153 0 76
-0.339165 -0.388577 -0.371064 153 0 76
0.537201 0.348469 -0.220601 153 0 76
-0.471947 0.525680 0.389456 153 0 76
-0.363895 0.474149 0.380319 76 0 153
0.306340 -0.669563 0.379880 204 51 127
-0.045097 0.477622 0.379953 76 0 153
-0.013058 0.145153 -0.371064 153 0 76
0.061828 -0.556119 -0.371064 153 0 76
-0.507987 0.113160 -0.246803 153 0 76
0.276232 -0.523072 -0.371064 153 0 76
-0.507987 -0.041668 0.219437 153 0 76
0.422824 0.110063 0.379678 204 51 127
-0.053560 0.521241 0.380012 76 0 153
0.343294 -0.147096 -0.371064 153 0 76
-0.214928 -0.056456 -0.371064 153 0 76
0.334037 0.577305 0.379678 76 0 153
0.537191 0.469457 0.176154 153 0 76
0.488373 0.784452 -0.352951 153 0 76
-0.507797 0.457088 -0.335314 153 0 76
-0.507987 -0.176972 -0.128974 153 0 76
0.431236 -0.780278 -0.104167 153 0 76
-0.507987 0.615839 0.046767 153 0 76
0.483180 -0.211614 -0.371050 153 0 76
0.160004 0.245421 -0.371064 153 0 76
-0.373302 -0.361774 -0.371064 153 0 76
0.537355 -0.218010 0.038336 153 0 76
0.105914 0.125957 0.379678 204 51 127
0.537191 -0.683407 -0.161461 153 0 76
0.537191 0.002245 0.234317 153 0 76
0.360212 0.652229 -0.371064 153 0 76
-0.353793 -0.776273 0.363925 153 0 76
0.537191 0.307145 0.178405 153 0 76
-0.476761 0.081120 0.383139 204 51 127
0.202364 0.543448 0.379678 76 0 153
0.132736 -0.780278 -0.112088 153 0 76
0.307487 0.159506 -0.371064 153 0 76
-0.507987 -0.374132 0.213787 153 0 76
0.438784 -0.705247 0.380284 204 51 127
-0.507985 0.124765 -0.302879 153 0 76
0.161922 -0.517375 0.379905 204 51 127
0.379087 0.786639 0.310421 153 0 76
0.177886 -0.103391 0.379678 204 51 127
0.537557 0.514303 0.347482 153 0 76
-0.452008 0.298393 0.380884 76 0 153
0.534725 0.774548 -0.086439 153 0 76
-0.507987 -0.251287 0.125097 153 0 76
-0.239708 -0.636947 -0.371064 153 0 76
0.041379 0.786642 0.355638 153 0 76
0.537524 0.563478 -0.254927 153 0 76
0.305011 0.745823 0.380044 76 0 153
-0.265418 0.786496 -0.106673 153 0 76
0.286702 -0.645214 -0.371064 153 0 76
0.204858 0.587218 0.379678 76 0 153
-0.433820 -0.378563 -0.371063 153 0 76
-0.141980 0.786496 -0.250167 153 0 76
-0.014153 -0.500381 -0.371064 153 0 76
0.147177 0.467694 -0.371064 153 0 76
-0.192199 -0.780278 0.229118 153 0 76
-0.199608 -0.370934 -0.371064 153 0 76
-0.507987 -0.619173 -0.104674 153 0 76
-0.361438 -0.376354 0.379529 204 51 127
-0.507987 -0.581380 -0.043726 153 0 76
-0.152503 -0.780278 0.032517 153 0 76
-0.297329 0.786647 -0.342676 153 0 76
-0.476371 -0.780062 0.298889 153 0 76
0.459740 0.786496 0.134491 153 0 76
0.369746 -0.780278 0.253686 153 0 76
0.537456 0.021601 0.070794 153 0 76
-0.507987 0.575309 0.177684 153 0 76
-0.141572 0.273558 0.380302 76 0 153
0.537191 0.598084 0.242330 153 0 76
-0.507987 -0.543603 0.215485 153 0 76
-0.456675 -0.488847 0.393399 0 0 255
0.537191 0.134131 0.114020 153 0 76
-0.507987 -0.713211 -0.226558 153 0 76
-0.504616 0.776714 0.313561 153 0 76
-0.507981 -0.354102 0.315165 153 0 76
0.082271 -0.505321 -0.371064 153 0 76
0.145490 -0.780278 -0.003606 153 0 76
0.537186 0.399938 -0.306966 153 0 76
-0.089531 0.786663 0.350800 153 0 76
-0.507987 -0.216480 0.092131 153 0 76
-0.507987 -0.510216 0.239221 153 0 76
-0.507987 -0.663616 -0.255300 153 0 76
-0.191084 0.028704 -0.371064 153 0 76
-0.032278 -0.530269 0.379678 204 51 127
0.535936 0.272504 -0.354331 153 0 76
0.537191 0.207478 0.133729 153 0 76
-0.195090 0.166394 -0.371064 153 0 76
0.116957 0.262889 0.380036 76 0 153
0.537191 -0.375473 -0.221218 153 0 76
-0.507783 0.739609 -0.106916 153 0 76
0.512298 -0.779958 0.239244 153 0 76
-0.312350 -0.683407 -0.371064 153 0 76
-0.507987 0.259855 0.111588 153 0 76
-0.087457 0.087280 0.379678 204 51 127
0.435085 0.786496 -0.004924 153 0 76
-0.407468 0.686741 0.385542 76 0 153
0.117564 -0.430518 -0.371064 153 0 76
-0.507987 0.625378 -0.211154 153 0 76
0.537191 -0.123636 -0.170118 153 0 76
0.434203 -0.386854 -0.371064 153 0 76
0.509527 0.786761 -0.209372 153 0 76
-0.204770 -0.678042 -0.371064 153 0 76
-0.173139 -0.114276 0.379947 204 51 127
0.537191 0.129088 0.293789 153 0 76
0.537244 -0.350175 0.270163 153 0 76
0.235309 0.786496 0.060015 153 0 76
-0.384374 0.272619 0.380701 76 0 153
0.537191 -0.159078 0.213901 153 0 76
0.240393 0.786562 -0.094923 153 0 76
-0.113394 -0.112423 -0.371064 153 0 76
-0.507987 0.370128 -0.024513 153 0 76
0.375302 -0.779922 -0.337773 153 0 76
0.537611 -0.385946 0.156622 153 0 76
-0.058872 -0.621580 -0.371064 153 0 76
0.537558 -0.205277 0.347709 153 0 76
0.124064 0.598892 -0.371064 153 0 76
0.197310 -0.170075 0.379678 204 51 127
0.157858 -0.334438 0.380100 204 51 127
-0.275014 0.786496 -0.270034 153 0 76
-0.144018 -0.780278 0.279150 153 0 76
-0.076149 0.786855 0.016140 153 0 76
-0.507987 0.528114 -0.219904 153 0 76
-0.453308 -0.780277 -0.092025 153 0 76
-0.115972 -0.780278 -0.105574 153 0 76
0.396643 0.519229 0.379678 76 0 153
0.537191 -0.363610 0.070780 153 0 76
0.108176 -0.780278 -0.053371 153 0 76
0.180735 -0.050938 -0.371064 153 0 76
0.403423 -0.054607 -0.371064 153 0 76
0.537191 -0.525035 0.044206 153 0 76
0.537524 -0.264864 0.116571 153 0 76
-0.396554 -0.780278 -0.239439 153 0 76
0.462334 0.159916 -0.371063 153 0 76
0.537530 -0.141282 0.052371 153 0 76
-0.507987 0.439047 -0.014999 153 0 76
0.191950 -0.559408 0.379826 204 51 127
0.187807 0.656789 -0.371064 153 0 76
-0.507987 -0.550210 0.080759 153 0 76
-0.506974 -0.752914 0.099222 153 0 76
0.537191 0.122022 0.190979 153 0 76
-0.168895 -0.590183 -0.371064 153 0 76
0.371067 0.786496 0.130024 153 0 76
0.421389 -0.221820 -0.371064 153 0 76
-0.140789 -0.330393 0.379678 204 51 127
-0.058841 0.786496 -0.142847 153 0 76
0.537593 -0.227557 0.109875 153 0 76
0.050234 -0.420411 -0.371064 153 0 76
0.537524 0.548211 -0.188606 153 0 76
0.307361 -0.433485 0.379678 204 51 127
-0.507987 -0.345932 -0.009847 153 0 76
-0.507987 0.235363 -0.094224 153 0 76
-0.507987 0.008235 0.075175 153 0 76
0.296518 -0.780278 0.075177 153 0 76
0.537328 0.208853 0.347829 153 0 76
-0.372614 0.726221 -0.371041 153 0 76
-0.507987 -0.607749 0.040218 153 0 76
-0.186144 -0.736072 -0.370911 153 0 76
0.537191 -0.458505 -0.071545 153 0 76
0.216239 -0.230145 -0.371064 153 0 76
-0.507987 0.392024 0.039444 153 0 76
0.537294 -0.001340 0.306575 153 0 76
0.384812 -0.780278 0.020994 153 0 76
0.332259 0.093469 0.379678 204 51 127
0.192209 0.786496 0.185849 153 0 76
0.506036 0.786774 0.106600 153 0 76
-0.110170 0.295475 0.380344 76 0 153
0.449922 0.248825 0.379729 76 0 153
-0.507987 0.562636 0.254461 153 0 76
0.537191 -0.171640 0.286498 153 0 76
-0.427348 0.621956 -0.371064 153 0 76
0.311862 -0.176096 0.379678 204 51 127
0.505482 -0.754223 0.378576 153 0 76
0.521170 0.081876 0.379329 153 0 76
0.490458 -0.780276 -0.190669 153 0 76
0.162558 -0.670600 0.379678 204 51 127
-0.507987 0.679334 -0.165700 153 0 76
-0.193166 -0.329194 0.379678 204 51 127
-0.173018 0.568162 -0.371064 153 0 76
0.154704 0.178848 0.379678 76 0 153
-0.507980 0.659886 0.321343 153 0 76
0.537452 -0.307597 0.101142 153 0 76
-0.507987 -0.124544 -0.268754 153 0 76
0.537668 -0.562668 0.348566 153 0 76
0.537191 0.314592 0.004431 153 0 76
0.377264 -0.780278 -0.260720 153 0 76
-0.490794 0.527106 -0.370246 153 0 76
-0.325813 0.663712 -0.371064 153 0 76
0.537186 -0.665923 -0.306876 153 0 76
0.080184 -0.662927 0.379678 204 51 127
-0.507987 -0.287422 0.004175 153 0 76
0.074139 0.701258 0.379795 76 0 153
-0.507685 -0.741292 0.175035 153 0 76
-0.124179 0.786741 -0.312370 153 0 76
0.395054 -0.499840 0.379678 204 51 127
0.086026 0.666731 -0.371064 153 0 76
-0.333531 0.444204 0.379661 76 0 153
-0.507987 0.515389 0.072253 153 0 76
-0.507987 -0.336768 0.243699 153 0 76
0.501203 -0.019241 -0.370921 153 0 76
-0.507987 -0.523887 -0.183383 153 0 76
-0.470915 0.786657 -0.298255 153 0 76
0.537191 -0.467699 0.002697 153 0 76
0.293934 -0.780278 0.229738 153 0 76
-0.277151 -0.210813 0.379678 204 51 127
0.185253 0.786496 0.011401 153 0 76
-0.038841 -0.228814 0.380107 204 51 127
0.366915 -0.012075 -0.371064 153 0 76
0.062389 0.105261 0.379678 204 51 127
-0.237806 -0.780278 0.166493 153 0 76
-0.011283 -0.168431 0.380098 204 51 127
-0.507986 0.555994 -0.297532 153 0 76
-0.219132 0.543469 0.379830 76 0 153
-0.106696 0.199872 -0.371064 153 0 76
0.080092 -0.094521 -0.371064 153 0 76
-0.274858 -0.780278 -0.007844 153 0 76
-0.198263 -0.268082 0.379678 204 51 127
0.215325 -0.780278 0.173939 153 0 76
0.434064 0.461151 0.379678 76 0 153
0.537191 -0.489996 0.037261 153 0 76
0.537268 0.008226 0.353862 153 0 76
0.505934 -0.667558 -0.370791 153 0 76
0.209832 -0.634886 0.379678 204 51 127
-0.507987 -0.077221 -0.210507 153 0 76
0.120362 0.786496 0.158085 153 0 76
-0.161347 0.513644 -0.371064 153 0 76
0.415329 -0.627978 0.379932 204 51 127
0.360902 -0.301642 0.379678 204 51 127
-0.430153 0.223405 -0.371064 153 0 76
-0.507987 0.165183 -0.117646 153 0 76
0.006678 0.750525 -0.370836 153 0 76
-0.507987 -0.559518 0.293200 153 0 76
0.433126 0.416232 0.379677 76 0 153
-0.507987 0.035784 -0.215486 153 0 76
-0.427849 0.265643 -0.371064 153 0 76
-0.242805 0.786496 -0.238310 153 0 76
-0.080057 0.786496 0.149492 153 0 76
0.202704 -0.780278 0.305789 153 0 76
0.536937 -0.750110 0.239322 153 0 76
-0.373086 0.298163 -0.371064 153 0 76
-0.378073 -0.671543 -0.371064 153 0 76
0.483133 -0.780277 -0.024105 153 0 76
-0.496596 -0.249487 -0.368146 153 0 76
0.003766 0.786496 -0.270430 153 0 76
-0.507987 -0.561122 -0.184117 153 0 76
-0.299766 -0.023078 -0.371064 153 0 76
-0.421215 0.651218 0.392824 153 0 76
-0.271809 -0.281744 0.379678 204 51 127
0.537191 0.641465 0.041060 153 0 76
0.537524 0.159530 -0.039734 153 0 76
-0.507987 -0.287649 -0.224850 153 0 76
-0.249855 0.765360 0.377680 76 0 153
0.077576 -0.360469 -0.371064 153 0 76
-0.402322 -0.437582 -0.371064 153 0 76
-0.507987 -0.184267 -0.211199 153 0 76
-0.213592 0.506166 -0.371064 153 0 76
0.537496 -0.197296 0.159562 153 0 76
-0.104136 -0.780278 0.068183 153 0 76
-0.409048 -0.197596 0.398775 0 0 255
-0.069357 -0.780278 0.250961 153 0 76
-0.507829 0.737586 0.301621 153 0 76
-0.067301 -0.215213 -0.371064 153 0 76
0.397854 -0.450550 -0.371064 153 0 76
-0.383263 -0.654138 0.381575 204 51 127
-0.507979 0.390264 0.321942 153 0 76
-0.363121 -0.780278 0.087012 153 0 76
0.132951 0.786496 0.071413 153 0 76
0.240940 0.160574 0.379678 204 51 127
0.450807 0.785414 0.360007 153 0 76
0.518422 -0.344516 0.379759 204 51 127
-0.442745 0.782396 0.365419 153 0 76
0.499089 0.486100 -0.370946 153 0 76
-0.434560 -0.318499 -0.371062 153 0 76
0.138160 0.786759 -0.064062 153 0 76
0.323390 0.285253 -0.371064 153 0 76
0.468729 -0.423789 -0.371059 153 0 76
-0.425015 0.786496 0.048714 153 0 76
-0.507987 0.484540 -0.168175 153 0 76
-0.507987 0.603121 -0.238143 153 0 76
-0.354101 -0.780278 -0.215694 153 0 76
0.190814 -0.710422 0.379955 204 51 127
0.537191 0.695183 0.161397 153 0 76
-0.507987 0.020126 0.152661 153 0 76
-0.493392 -0.069536 -0.369306 153 0 76
-0.507987 0.567105 -0.091205 153 0 76
0.450110 -0.780278 -0.073614 153 0 76
0.537156 -0.737105 -0.067168 153 0 76
0.459379 0.320269 -0.371064 153 0 76
-0.457518 0.558581 0.395742 153 0 76
0.537200 0.737319 0.294110 153 0 76
0.377769 0.575754 0.379678 76 0 153
0.166643 0.786496 0.258786 153 0 76
-0.144402 0.786544 -0.037357 153 0 76
0.533501 0.747334 0.373132 153 0 76
-0.196718 0.786829 0.151883 153 0 76
-0.507987 0.324835 0.066438 153 0 76
0.537191 0.599787 0.171113 153 0 76
0.109660 -0.293977 -0.371064 153 0 76
0.537524 0.418799 -0.189741 153 0 76
-0.309795 -0.780278 0.258110 153 0 76
0.239562 -0.122732 0.379678 204 51 127
-0.488774 0.086770 -0.370506 153 0 76
-0.283464 0.786948 0.126327 153 0 76
0.062689 0.576762 -0.371064 153 0 76
-0.507987 0.134651 0.195460 153 0 76
0.537191 0.654552 0.283070 153 0 76
0.269056 0.786496 0.225982 153 0 76
-0.507753 -0.682631 -0.345029 153 0 76
-0.434054 -0.275021 -0.371063 153 0 76
-0.507987 0.694792 -0.083891 153 0 76
0.180953 0.543530 -0.371064 153 0 76
0.246529 0.727742 0.380017 76 0 153
-0.102016 -0.551871 0.379678 204 51 127
-0.052563 0.618309 -0.371064 153 0 76
-0.359721 -0.780278 0.275406 153 0 76
0.537155 -0.748572 -0.258542 153 0 76
0.071428 0.503284 -0.371064 153 0 76
0.537564 0.357341 -0.130777 153 0 76
0.537227 0.149653 0.048107 153 0 76
-0.507987 -0.204440 0.204571 153 0 76
-0.499853 -0.773127 0.023276 153 0 76
0.148272 -0.748055 0.379902 204 51 127
0.537222 0.495340 -0.118976 153 0 76
-0.495535 -0.140435 -0.368530 153 0 76
-0.271763 -0.036439 0.380026 204 51 127
-0.045808 0.726340 0.380007 76 0 153
-0.348891 0.042145 -0.371064 153 0 76
-0.507987 -0.485924 0.071022 153 0 76
0.537191 0.723112 -0.018647 153 0 76
0.386128 -0.099818 0.379678 204 51 127
-0.005862 0.407797 0.379678 76 0 153
-0.507987 -0.031220 -0.195752 153 0 76
0.143514 0.236928 0.379688 76 0 153
-0.199929 0.786496 -0.272848 153 0 76
0.537191 0.115323 0.260703 153 0 76
-0.084904 -0.629288 0.379678 204 51 127
0.155707 0.772099 -0.366805 153 0 76
-0.259209 0.144899 0.379679 204 51 127
0.336895 0.786931 -0.298076 153 0 76
0.493373 -0.179477 0.379975 204 51 127
0.537203 0.211670 -0.183012 153 0 76
-0.080955 0.599603 0.380016 76 0 153
0.139050 0.061334 0.379678 204 51 127
0.103746 -0.720115 -0.371034 153 0 76
-0.331862 0.589221 -0.371064 153 0 76
0.450234 -0.589652 -0.371064 153 0 76
0.537191 0.244684 0.139702 153 0 76
-0.507987 -0.656245 0.270986 153 0 76
-0.008869 0.326793 -0.371064 153 0 76
-0.292616 0.506775 0.379678 76 0 153
0.374354 -0.572075 0.379984 204 51 127
0.537118 0.006659 -0.330691 153 0 76
-0.130084 -0.671557 0.379678 204 51 127
0.441643 -0.780278 -0.219840 153 0 76
0.534183 0.430452 -0.364491 153 0 76
0.344152 0.786496 -0.093191 153 0 76
-0.429843 0.786496 0.127471 153 0 76
-0.307690 -0.160500 -0.371064 153 0 76
0.179753 0.130563 0.379678 204 51 127
-0.220635 0.786627 0.039992 153 0 76
0.097890 0.786705 -0.024295 153 0 76
0.374103 -0.780278 -0.105439 153 0 76
0.537191 0.377068 0.052467 153 0 76
-0.507987 -0.163511 0.109775 153 0 76
-0.098187 -0.780278 -0.226590 153 0 76
-0.165891 -0.021085 -0.371064 153 0 76
-0.507987 -0.586168 0.266787 153 0 76
-0.351698 0.786496 -0.152509 153 0 76
-0.162595 0.786496 0.279337 153 0 76
-0.507807 -0.731192 -0.147718 153 0 76
0.535417 -0.762087 0.111170 153 0 76
0.182548 -0.780278 -0.287672 153 0 76
0.071850 0.045934 0.379678 204 51 127
-0.064661 0.483596 -0.371064 153 0 76
-0.507987 0.275260 -0.207483 153 0 76
-0.507987 -0.592125 -0.246335 153 0 76
0.321840 0.786496 0.176049 153 0 76
-0.507984 0.157326 -0.314033 153 0 76
0.537191 0.398170 0.249834 153 0 76
-0.383488 -0.780278 -0.065001 153 0 76
0.108613 -0.780278 -0.283720 153 0 76
0.039057 0.786496 0.231778 153 0 76
0.138262 0.405127 -0.371064 153 0 76
0.036165 -0.562497 0.379678 204 51 127
-0.507987 -0.210686 -0.143153 153 0 76
-0.397739 -0.780278 0.177444 153 0 76
0.348671 0.058174 -0.371064 153 0 76
0.537320 -0.056319 -0.029148 153 0 76
0.537884 -0.615564 0.342241 153 0 76
-0.028420 -0.780278 0.166492 153 0 76
-0.324352 -0.629354 -0.371064 153 0 76
-0.507987 0.683544 -0.278490 153 0 76
0.445523 0.539549 -0.371064 153 0 76
-0.069209 -0.202458 0.380084 204 51 127
-0.289358 -0.588405 -0.371064 153 0 76
0.472636 -0.780277 0.049516 153 0 76
-0.386085 0.167123 -0.371064 153 0 76
0.537191 -0.620715 -0.125569 153 0 76
-0.153479 0.786673 0.349567 153 0 76
0.537191 -0.566074 -0.138051 153 0 76
0.537105 -0.444582 -0.331697 153 0 76
-0.507987 -0.479388 0.114662 153 0 76
0.360810 0.786496 -0.147474 153 0 76
0.537228 -0.282702 0.299585 153 0 76
0.536201 -0.145106 -0.353184 153 0 76
-0.313025 -0.226140 0.379678 204 51 127
0.427737 -0.000707 0.379678 204 51 127
-0.293337 -0.266759 -0.371064 153 0 76
0.066989 -0.780278 -0.234184 153 0 76
-0.275264 0.786626 0.256119 153 0 76
0.537191 -0.709904 0.005777 153 0 76
0.400854 0.786878 -0.259907 153 0 76
-0.400697 -0.388507 0.393849 0 0 255
-0.507564 0.427096 0.358450 153 0 76
0.527889 -0.774509 0.020849 153 0 76
0.537445 -0.460113 0.281960 153 0 76
0.537191 -0.715956 0.080837 153 0 76
0.537191 -0.137189 -0.027590 153 0 76
0.338170 -0.780278 -0.103996 153 0 76
0.537191 0.561433 0.284910 153 0 76
0.069909 -0.593013 0.379678 204 51 127
0.324277 -0.696749 -0.371064 153 0 76
-0.042757 -0.780278 -0.166357 153 0 76
-0.204208 -0.518196 0.379678 204 51 127
0.173292 -0.106241 -0.371064 153 0 76
-0.486377 -0.424229 -0.370560 153 0 76
-0.507721 0.712465 -0.348047 153 0 76
-0.294334 -0.780278 -0.135131 153 0 76
0.063436 -0.780278 -0.029275 153 0 76
0.321352 -0.582278 -0.371064 153 0 76
0.535713 0.611209 -0.355625 153 0 76
-0.453723 0.035674 0.391759 0 0 255
-0.507987 -0.663027 0.153044 153 0 76
0.046497 -0.780278 0.200730 153 0 76
-0.507987 0.471140 0.095399 153 0 76
-0.507987 -0.018633 -0.129898 153 0 76
-0.176488 0.456226 0.379678 76 0 153
-0.507279 0.612129 -0.351003 153 0 76
0.537237 0.446350 -0.088024 153 0 76
-0.236562 0.678503 -0.371064 153 0 76
-0.191889 0.210922 0.379693 76 0 153
-0.274361 -0.557286 -0.371064 153 0 76
-0.121718 -0.029927 0.379841 204 51 127
0.501425 0.438402 0.379924 76 0 153
0.050755 0.786835 -0.057498 153 0 76
0.377619 0.693740 0.379722 76 0 153
-0.132921 -0.435024 0.379678 204 51 127
-0.295026 -0.780277 0.313341 153 0 76
-0.507984 -0.070160 -0.310670 153 0 76
0.537613 0.193408 -0.058290 153 0 76
0.500699 0.301271 0.380099 76 0 153
-0.274943 0.190254 -0.371064 153 0 76
0.103475 0.630747 -0.371064 153 0 76
0.254689 -0.780278 -0.248357 153 0 76
-0.341864 0.786515 -0.289043 153 0 76
0.537246 0.049340 -0.091863 153 0 76
-0.126643 0.292558 -0.371064 153 0 76
0.005998 0.245188 -0.371064 153 0 76
-0.214789 -0.780277 0.328841 153 0 76
-0.507987 -0.365605 0.155304 153 0 76
0.537191 -0.214986 -0.115332 153 0 76
0.537139 0.062968 -0.327495 153 0 76
-0.507987 -0.690340 -0.108099 153 0 76
0.187426 -0.228298 0.379678 204 51 127
-0.038156 -0.716223 0.380011 204 51 127
-0.424224 -0.234791 -0.371064 153 0 76
-0.507987 -0.422672 -0.016334 153 0 76
-0.209134 0.273699 -0.371064 153 0 76
0.027872 0.115283 0.379678 204 51 127
-0.507987 0.559734 0.019254 153 0 76
0.520644 -0.482811 -0.370332 153 0 76
-0.507753 -0.115778 0.355820 153 0 76
0.336740 -0.780278 -0.042301 153 0 76
0.537191 -0.045857 -0.151464 153 0 76
-0.281607 -0.405221 0.379678 204 51 127
0.191599 -0.340659 -0.371064 153 0 76
0.314843 0.781959 -0.357044 153 0 76
-0.505581 -0.762685 -0.082464 153 0 76
-0.464944 -0.780271 0.213690 153 0 76
-0.361698 -0.442062 0.379603 204 51 127
0.469199 0.746041 -0.370867 153 0 76
-0.507984 -0.312020 -0.315354 153 0 76
0.325153 0.503456 -0.371064 153 0 76
0.046006 0.036290 -0.371064 153 0 76
0.242101 -0.372306 0.379741 204 51 127
0.537382 0.667143 0.342662 153 0 76
-0.195027 -0.780278 0.090208 153 0 76
-0.507987 -0.455842 0.055157 153 0 76
-0.052983 0.786496 0.217295 153 0 76
0.279754 -0.780278 -0.282770 153 0 76
-0.505478 0.021746 -0.360331 153 0 76
0.309971 0.786496 0.294968 153 0 76
0.054670 -0.464603 0.379678 204 51 127
0.025961 0.786496 -0.245141 153 0 76
0.372846 -0.343569 -0.371064 153 0 76
-0.185776 0.239312 -0.371064 153 0 76
-0.507987 0.194394 -0.012865 153 0 76
-0.507987 0.566867 -0.230476 153 0 76
0.019408 0.786496 0.158756 153 0 76
-0.038775 -0.369520 -0.371064 153 0 76
-0.497991 0.780818 0.114280 153 0 76
0.522453 -0.657595 0.378968 153 0 76
-0.121388 -0.779942 0.349821 153 0 76
-0.035359 -0.052480 -0.371064 153 0 76
0.537319 0.522620 -0.298988 153 0 76
-0.507987 -0.114280 -0.136787 153 0 76
-0.507987 0.136050 0.061649 153 0 76
0.123418 -0.780277 0.325162 153 0 76
0.537191 0.181733 -0.241405 153 0 76
-0.175155 0.417859 -0.371064 153 0 76
0.537191 -0.635188 -0.181743 153 0 76
-0.507987 0.335131 -0.062943 153 0 76
-0.042370 0.567800 0.379957 76 0 153
-0.210124 0.318385 0.380284 76 0 153
-0.507987 0.635475 -0.022034 153 0 76
0.537075 0.190375 -0.332132 153 0 76
-0.240045 0.786727 -0.310924 153 0 76
-0.150563 0.623285 -0.371064 153 0 76
-0.507987 -0.069975 0.172950 153 0 76
0.213765 -0.368555 -0.371064 153 0 76
-0.507921 0.230292 -0.327695 153 0 76
-0.408672 0.720228 0.383055 76 0 153
0.281502 0.669466 0.379678 76 0 153
-0.150733 0.644646 0.379918 76 0 153
0.537191 0.026797 -0.271782 153 0 76
-0.120832 -0.723339 -0.371009 153 0 76
0.436917 -0.010101 -0.371064 153 0 76
0.026706 -0.780278 -0.076103 153 0 76
-0.155554 0.086708 -0.371064 153 0 76
-0.507987 0.049631 -0.261973 153 0 76
-0.335363 0.129113 0.380039 204 51 127
0.410658 0.588842 0.379678 76 0 153
0.063079 -0.168637 -0.371064 153 0 76
0.488509 -0.069009 0.379929 204 51 127
-0.507987 -0.250032 -0.124669 153 0 76
0.190398 -0.780115 0.338902 153 0 76
-0.296613 -0.091084 -0.371064 153 0 76
0.486291 -0.235439 0.379910 204 51 127
-0.507987 -0.625644 -0.064612 153 0 76
0.112483 -0.644897 0.379678 204 51 127
0.255457 -0.780278 -0.121440 153 0 76
0.235350 -0.091581 -0.371064 153 0 76
0.537191 -0.593968 -0.268168 153 0 76
0.131079 0.786661 -0.208095 153 0 76
-0.507987 0.313422 0.156939 153 0 76
-0.507983 0.490916 -0.319389 153 0 76
-0.382679 0.026895 0.384910 204 51 127
-0.353702 -0.496481 -0.371064 153 0 76
0.322046 -0.737972 -0.370896 153 0 76
0.327707 -0.780278 -0.173763 153 0 76
0.492601 -0.346111 -0.371044 153 0 76
0.389090 -0.162172 0.379678 204 51 127
-0.454282 0.786545 0.174817 153 0 76
0.537191 -0.074290 -0.213750 153 0 76
-0.348046 -0.558950 0.379647 204 51 127
-0.136746 0.260850 -0.371064 153 0 76
-0.507726 -0.737913 -0.268733 153 0 76
0.019441 -0.780278 0.273250 153 0 76
-0.123261 0.516996 0.380000 76 0 153
0.320659 -0.295916 -0.371064 153 0 76
0.262666 0.786577 0.304068 153 0 76
-0.507983 -0.218730 -0.321272 153 0 76
-0.507817 0.181834 -0.338346 153 0 76
-0.507987 -0.377669 -0.049818 153 0 76
-0.507987 0.278448 0.271574 153 0 76
-0.128730 0.447080 -0.371064 153 0 76
0.225754 -0.780278 0.230605 153 0 76
0.192348 -0.547096 -0.371064 153 0 76
0.417321 0.735215 0.380028 76 0 153
-0.320625 0.316507 0.380301 76 0 153
-0.244943 -0.753399 0.378712 153 0 76
-0.493566 -0.177963 0.378780 153 0 76
0.091624 0.275151 -0.371064 153 0 76
0.427636 0.675577 -0.371064 153 0 76
0.498735 0.167209 0.379951 204 51 127
0.406195 -0.544545 -0.371064 153 0 76
-0.379689 0.786496 -0.078647 153 0 76
0.365805 0.776941 0.374830 76 0 153
0.246956 0.318524 0.380072 76 0 153
-0.040963 -0.640646 0.379678 204 51 127
0.537595 0.505642 -0.203917 153 0 76
-0.507792 0.149088 0.351268 153 0 76
-0.507987 0.163866 0.140888 153 0 76
-0.217395 -0.431531 -0.371064 153 0 76
-0.024196 0.786521 0.116970 153 0 76
0.136886 0.053613 -0.371064 153 0 76
-0.178476 -0.780278 -0.272901 153 0 76
0.489788 0.102207 -0.371046 153 0 76
-0.507980 0.288178 0.320256 153 0 76
0.139870 0.542064 -0.371064 153 0 76
-0.011153 0.598844 -0.371064 153 0 76
0.354311 0.786496 -0.014005 153 0 76
-0.373486 -0.183815 -0.371064 153 0 76
0.537191 0.557277 0.019426 153 0 76
-0.507987 0.252215 0.076678 153 0 76
-0.037994 -0.303216 0.379769 204 51 127
0.020438 0.786953 -0.072528 153 0 76
-0.245101 -0.780278 -0.055728 153 0 76
-0.433183 0.126059 -0.371063 153 0 76
-0.404890 -0.780278 -0.298449 153 0 76
0.017680 -0.411157 0.379678 204 51 127
0.408563 -0.780278 0.271780 153 0 76
-0.507987 -0.052995 -0.274691 153 0 76
0.532888 -0.771030 0.313031 153 0 76
-0.507986 -0.556311 -0.293716 153 0 76
-0.201495 0.733176 -0.370982 153 0 76
0.508070 0.017097 -0.370756 153 0 76
0.516088 0.786745 0.323919 153 0 76
0.223665 0.482324 -0.371064 153 0 76
-0.477360 -0.780044 -0.293361 153 0 76
0.537380 -0.368776 0.128460 153 0 76
-0.507986 0.009823 -0.296558 153 0 76
-0.419023 0.786902 0.342969 153 0 76
0.536944 -0.379726 -0.346674 153 0 76
0.249667 -0.744300 0.380045 204 51 127
0.065133 -0.704569 0.379898 204 51 127
-0.436266 0.786524 -0.270529 153 0 76
0.537191 0.031493 -0.171622 153 0 76
-0.245902 -0.780278 -0.177597 153 0 76
0.509200 0.023167 0.379859 204 51 127
0.043571 0.753705 0.380043 76 0 153
-0.507987 -0.567954 -0.009050 153 0 76
0.179547 -0.401084 0.380043 204 51 127
0.477096 0.786654 -0.154232 153 0 76
-0.507987 0.379987 0.134350 153 0 76
0.537642 0.013410 -0.004821 153 0 76
-0.507987 -0.432369 0.138399 153 0 76
0.437585 -0.125562 -0.371064 153 0 76
-0.040757 -0.780278 -0.099006 153 0 76
0.425338 -0.462866 0.379678 204 51 127
-0.108816 -0.780278 -0.058169 153 0 76
-0.472106 -0.596308 0.384500 204 51 127
-0.325135 0.786496 -0.100140 153 0 76
-0.025931 -0.749067 -0.370655 153 0 76
0.537642 0.588713 -0.277238 153 0 76
0.382585 0.786596 -0.349514 153 0 76
-0.507987 0.006613 0.266389 153 0 76
-0.072029 0.786541 -0.291728 153 0 76
0.116435 -0.780278 0.175954 153 0 76
-0.507987 0.249600 0.155468 153 0 76
0.364029 0.786496 0.219324 153 0 76
0.127551 0.786932 -0.136818 153 0 76
0.112438 -0.073751 0.379678 204 51 127
-0.507987 0.476656 0.248710 153 0 76
-0.173166 -0.780278 -0.157901 153 0 76
-0.066461 0.649836 -0.371064 153 0 76
-0.487394 0.015922 0.380953 0 0 255
0.376780 0.207178 0.379678 76 0 153
0.435513 -0.687311 -0.371064 153 0 76
-0.507977 -0.415292 0.329512 153 0 76
0.537191 -0.428097 -0.267419 153 0 76
-0.507987 -0.298502 0.118585 153 0 76
-0.467215 0.685068 -0.370991 153 0 76
-0.118426 0.147591 0.379678 204 51 127
-0.328596 -0.499126 0.379673 204 51 127
-0.418387 -0.690968 0.382035 204 51 127
-0.507987 -0.492545 -0.243782 153 0 76
0.007625 -0.780197 0.335746 153 0 76
0.301807 0.786496 0.076734 153 0 76
-0.237246 -0.693612 0.379792 204 51 127
0.537185 -0.119685 -0.311363 153 0 76
0.182913 0.766830 0.377318 76 0 153
0.537191 0.448342 0.057921 153 0 76
-0.410004 0.737782 -0.370943 153 0 76
0.117617 0.786496 -0.278340 153 0 76
0.537191 0.069350 -0.222436 153 0 76
-0.347088 -0.717960 0.380004 204 51 127
0.537361 -0.087873 0.355124 153 0 76
0.537504 -0.428988 0.327908 153 0 76
-0.044321 0.444109 0.379678 76 0 153
0.105944 0.786774 0.336630 153 0 76
0.288602 -0.213061 -0.371064 153 0 76
0.054086 -0.302146 -0.371064 153 0 76
-0.201073 0.786496 -0.042558 153 0 76
0.466485 0.786551 -0.106998 153 0 76
-0.092514 -0.265549 -0.371064 153 0 76
0.537191 -0.649176 -0.088129 153 0 76
0.535520 -0.266647 -0.356739 153 0 76
0.010534 0.786496 0.125078 153 0 76
0.360753 -0.007658 0.379678 204 51 127
0.257367 0.267756 0.379912 76 0 153
0.488584 0.786765 -0.026655 153 0 76
0.018440 0.786778 -0.316128 153 0 76
0.002967 -0.780278 -0.133645 153 0 76
-0.507985 0.616372 -0.306540 153 0 76
0.166629 0.786496 0.211982 153 0 76
0.537191 -0.181560 -0.257534 153 0 76
0.188093 0.472116 -0.371064 153 0 76
-0.507987 0.145567 -0.167673 153 0 76
-0.499916 -0.361025 -0.366943 153 0 76
0.254307 -0.021506 -0.371064 153 0 76
0.021115 0.654969 -0.371064 153 0 76
0.537274 -0.051272 0.353403 153 0 76
-0.016410 -0.134338 0.379840 204 51 127
0.537191 -0.190335 -0.064933 153 0 76
0.340362 -0.081906 -0.371064 153 0 76
0.537191 0.020279 -0.109685 153 0 76
-0.507987 -0.179699 -0.252868 153 0 76
-0.402596 -0.396983 -0.371064 153 0 76
0.537325 0.165445 0.012306 153 0 76
-0.507987 -0.025904 0.289604 153 0 76
0.069413 -0.780278 0.033169 153 0 76
0.537538 -0.328950 0.131549 153 0 76
-0.507987 -0.710743 0.243339 153 0 76
-0.083013 0.224520 0.379825 76 0 153
-0.011667 0.780360 -0.359809 153 0 76
0.283864 0.679254 -0.371064 153 0 76
-0.220842 0.604689 -0.371064 153 0 76
0.031929 0.148886 -0.371064 153 0 76
-0.084980 -0.744659 0.379979 204 51 127
0.212818 0.412216 -0.371064 153 0 76
0.351465 -0.713971 0.380145 204 51 127
0.537524 -0.465773 0.223629 153 0 76
-0.507606 0.754681 0.246704 153 0 76
0.537191 -0.635699 0.056009 153 0 76
0.394194 0.020639 -0.371064 153 0 76
-0.454840 -0.780277 0.131629 153 0 76
-0.438854 -0.031801 0.401923 0 0 255
-0.507987 -0.672780 0.012349 153 0 76
-0.453740 0.006585 -0.371054 153 0 76
0.293337 0.450666 -0.371064 153 0 76
-0.283038 -0.780278 -0.228467 153 0 76
0.011737 -0.780278 -0.251236 153 0 76
0.537191 0.705278 0.092455 153 0 76
0.061201 0.525160 0.379997 76 0 153
-0.472247 0.213493 0.380818 153 0 76
-0.029611 0.786496 0.180539 153 0 76
0.205382 0.786869 -0.207759 153 0 76
-0.422564 0.315759 0.380865 76 0 153
-0.507987 0.477016 0.147729 153 0 76
-0.507987 0.108470 0.000795 153 0 76
-0.255872 0.786496 -0.199998 153 0 76
0.537191 -0.318437 -0.159256 153 0 76
-0.145934 0.692394 0.379708 76 0 153
-0.093467 -0.780278 -0.007605 153 0 76
0.270743 -0.555311 0.380062 204 51 127
-0.035590 -0.677817 -0.371064 153 0 76
0.537191 0.414326 0.218408 153 0 76
0.410738 -0.064121 0.379678 204 51 127
-0.507987 0.317911 -0.260011 153 0 76
0.537191 0.489011 -0.074506 153 0 76
-0.451564 0.360084 0.383437 76 0 153
0.314357 -0.005295 -0.371064 153 0 76
0.079416 -0.434007 -0.371064 153 0 76
0.193295 -0.363905 0.380052 204 51 127
0.289634 -0.780278 0.123419 153 0 76
0.130894 0.651434 0.379678 76 0 153
-0.310276 -0.730246 -0.370956 153 0 76
-0.507742 0.742807 -0.192214 153 0 76
0.525219 0.783431 -0.289181 153 0 76
0.537524 0.309998 -0.085645 153 0 76
-0.423872 -0.759210 -0.368190 153 0 76
0.363027 -0.142213 0.379678 204 51 127
0.247447 -0.526909 0.380048 204 51 127
0.537191 -0.061326 0.290716 153 0 76
0.200633 -0.257575 0.379678 204 51 127
0.022995 -0.080549 0.379678 204 51 127
0.313262 -0.780278 -0.275135 153 0 76
0.537641 -0.553859 0.309703 153 0 76
-0.323747 0.786496 -0.026540 153 0 76
0.537191 0.417074 -0.021646 153 0 76
0.537191 0.147318 0.143270 153 0 76
-0.257474 0.401012 -0.371064 153 0 76
-0.414195 -0.780097 -0.329637 153 0 76
-0.454094 -0.492074 -0.371054 153 0 76
0.431530 0.786496 0.197523 153 0 76
-0.373106 -0.230588 -0.371064 153 0 76
-0.507923 0.728563 0.015336 153 0 76
0.537538 0.432244 0.340107 153 0 76
0.416337 -0.780278 0.008019 153 0 76
0.537191 0.194438 0.268642 153 0 76
0.537325 0.284518 -0.043368 153 0 76
-0.117413 0.630161 -0.371064 153 0 76
0.340522 0.312141 0.380259 76 0 153
0.537188 -0.010127 -0.298476 153 0 76
0.333915 -0.458759 -0.371064 153 0 76
0.354463 0.717897 0.379956 76 0 153
0.537332 0.570862 -0.164550 153 0 76
0.432368 0.743350 -0.370896 153 0 76
-0.402000 0.089914 0.386064 204 51 127
-0.507984 0.353392 -0.316683 153 0 76
-0.161164 -0.780278 -0.099135 153 0 76
0.537191 -0.403478 -0.154108 153 0 76
0.104406 -0.780278 -0.210203 153 0 76
-0.426482 -0.067545 0.406013 0 0 255
-0.507987 0.003102 0.187690 153 0 76
0.192976 0.616896 0.379678 76 0 153
-0.406757 -0.689237 -0.371064 153 0 76
-0.507987 -0.630474 0.003066 153 0 76
0.042926 0.775982 -0.365861 153 0 76
-0.259258 0.031937 0.380012 204 51 127
-0.139654 -0.780278 0.182101 153 0 76
-0.102091 0.786829 -0.007368 153 0 76
0.537092 0.477703 -0.330390 153 0 76
0.483159 0.415620 -0.371050 153 0 76
-0.001895 0.066593 0.379678 204 51 127
-0.023914 -0.780278 -0.237195 153 0 76
-0.341041 -0.780278 0.161723 153 0 76
0.537191 -0.120730 -0.239718 153 0 76
-0.079377 -0.468817 0.379678 204 51 127
0.537191 0.670276 0.062996 153 0 76
-0.358836 0.786496 -0.030112 153 0 76
-0.268727 0.298723 0.380344 76 0 153
0.058367 -0.780277 0.315032 153 0 76
0.205784 0.326477 0.380080 76 0 153
-0.507987 0.491337 0.027967 153 0 76
0.075396 -0.330252 0.380052 204 51 127
0.025773 -0.024866 -0.371064 153 0 76
-0.286434 0.003079 0.380139 204 51 127
0.483676 0.786940 -0.287372 153 0 76
0.444518 -0.780278 -0.261456 153 0 76
0.250954 -0.780275 -0.321407 153 0 76
-0.348449 0.786562 0.117390 153 0 76
-0.329312 0.730275 0.380159 76 0 153
-0.507987 0.669139 0.079374 153 0 76
-0.354988 -0.780278 -0.126016 153 0 76
-0.507879 -0.207392 0.341120 153 0 76
-0.356771 -0.774723 -0.357331 153 0 76
0.008122 -0.634060 -0.371064 153 0 76
-0.507987 0.039103 0.020431 153 0 76
0.536769 -0.751472 -0.162887 153 0 76
0.349310 -0.076624 0.379678 204 51 127
0.537186 -0.313682 -0.306812 153 0 76
0.039382 0.437229 -0.371064 153 0 76
0.253509 -0.266112 -0.371064 153 0 76
-0.114777 0.774355 -0.366256 153 0 76
-0.251033 -0.326472 -0.371064 153 0 76
0.041385 0.786496 -0.151590 153 0 76
0.121164 -0.711595 0.379966 204 51 127
-0.483986 -0.779611 0.354055 153 0 76
0.015798 -0.489873 -0.371064 153 0 76
0.453297 -0.780278 0.159165 153 0 76
-0.507987 -0.496429 -0.100834 153 0 76
-0.449554 -0.153342 0.399759 0 0 255
-0.400659 -0.780278 0.002459 153 0 76
0.537191 0.489260 -0.009409 153 0 76
-0.359595 0.090837 0.380024 204 51 127
-0.507987 0.110908 0.289020 153 0 76
0.537191 0.718192 -0.123713 153 0 76
-0.507987 0.155546 -0.034114 153 0 76
0.270988 0.533318 0.379678 76 0 153
-0.043781 -0.489158 -0.371064 153 0 76
-0.000830 0.786714 0.354378 153 0 76
0.493081 -0.777888 -0.352038 153 0 76
0.224877 0.201035 0.379678 76 0 153
-0.507987 -0.343104 -0.055189 153 0 76
-0.145902 -0.528842 -0.371064 153 0 76
0.537561 -0.482369 0.348979 153 0 76
-0.507987 -0.067606 0.041266 153 0 76
-0.053666 -0.780278 -0.300656 153 0 76
0.238364 0.065725 -0.371064 153 0 76
0.537187 -0.357190 -0.301728 153 0 76
-0.238785 0.473708 -0.371064 153 0 76
0.355941 -0.753095 0.378912 153 0 76
-0.000520 0.146855 0.379678 204 51 127
-0.069707 -0.780278 0.189344 153 0 76
0.364668 0.366606 -0.371064 153 0 76
0.271432 -0.780278 -0.080928 153 0 76
-0.485370 0.265008 -0.370583 153 0 76
0.067020 -0.527541 0.379678 204 51 127
0.420483 0.786496 -0.039652 153 0 76
-0.140433 0.139698 -0.371064 153 0 76
-0.353170 0.786496 -0.250455 153 0 76
-0.066031 -0.364008 0.379678 204 51 127
0.047100 -0.591612 -0.371064 153 0 76
0.254664 0.189578 -0.371064 153 0 76
-0.235715 -0.491086 -0.371064 153 0 76
0.537191 -0.308007 -0.088231 153 0 76
-0.507987 0.608876 -0.121026 153 0 76
-0.374090 -0.780278 0.153123 153 0 76
-0.507987 0.291830 -0.278438 153 0 76
-0.507987 -0.258938 -0.064406 153 0 76
0.142842 0.600970 0.379678 76 0 153
-0.446609 -0.594339 -0.371057 153 0 76
0.537489 -0.023608 0.075105 153 0 76
-0.507913 0.553560 0.337181 153 0 76
0.222788 -0.780278 -0.177342 153 0 76
0.345999 0.113630 -0.371064 153 0 76
-0.489944 0.327912 -0.370480 153 0 76
0.537316 0.342641 -0.069263 153 0 76
-0.457761 0.734391 0.380950 76 0 153
-0.305945 0.430123 -0.371064 153 0 76
-0.507987 0.443119 -0.079787 153 0 76
-0.426166 0.786973 0.231854 153 0 76
-0.442062 -0.660281 -0.371059 153 0 76
0.537191 -0.476206 0.156906 153 0 76
-0.507987 0.173534 0.277712 153 0 76
0.210471 0.786805 -0.318914 153 0 76
-0.171638 0.730917 0.380022 76 0 153
-0.184071 0.062067 -0.371064 153 0 76
-0.266761 -0.502583 0.379678 204 51 127
-0.507034 0.662299 0.361290 153 0 76
-0.507987 0.449509 0.062979 153 0 76
0.119846 -0.136875 -0.371064 153 0 76
-0.507987 0.639513 0.162913 153 0 76
0.537191 -0.170618 -0.023050 153 0 76
0.537191 -0.235186 -0.176275 153 0 76
0.518949 -0.779836 0.085717 153 0 76
0.050231 0.786752 0.322112 153 0 76
-0.507987 0.564451 0.112884 153 0 76
-0.507987 0.314618 0.125580 153 0 76
-0.358966 0.394527 -0.371064 153 0 76
0.292533 -0.636107 0.379942 204 51 127
-0.315090 -0.704239 0.379895 204 51 127
-0.314916 -0.780278 0.180060 153 0 76
-0.487423 -0.055391 0.381265 204 51 127
-0.251225 -0.396802 0.379678 204 51 127
0.267131 0.786496 0.016461 153 0 76
0.144470 -0.028514 -0.371064 153 0 76
0.009283 0.544041 0.380011 76 0 153
0.227891 0.786496 0.224993 153 0 76
0.309759 0.604028 0.379678 76 0 153
-0.507987 0.406862 -0.190259 153 0 76
-0.507987 -0.219354 0.060163 153 0 76
0.306576 -0.014920 0.379678 204 51 127
0.135329 0.786496 0.219704 153 0 76
0.537191 0.031093 0.222192 153 0 76
0.536100 0.611870 0.365360 153 0 76
-0.256086 -0.780278 0.036066 153 0 76
0.235261 -0.780278 0.140061 153 0 76
-0.507987 -0.372401 -0.189623 153 0 76
-0.499662 -0.573441 0.376236 153 0 76
-0.173976 0.667867 0.379868 76 0 153
-0.507987 -0.164036 0.202016 153 0 76
-0.294265 -0.769852 -0.365471 153 0 76
0.016296 0.786496 0.071648 153 0 76
-0.181403 -0.732446 0.379949 204 51 127
-0.507987 -0.576039 0.237250 153 0 76
0.247429 -0.780278 0.030535 153 0 76
-0.149226 -0.193840 -0.371064 153 0 76
-0.237695 0.657079 0.380094 76 0 153
0.352746 -0.780278 0.115246 153 0 76
0.065985 -0.780278 0.176353 153 0 76
-0.507987 0.671895 0.007963 153 0 76
0.021793 0.505246 -0.371064 153 0 76
0.251951 0.786844 -0.218358 153 0 76
-0.506535 0.759602 -0.350573 153 0 76
-0.034038 -0.587528 -0.371064 153 0 76
0.537577 0.048958 0.013985 153 0 76
0.510476 -0.779991 -0.104469 153 0 76
0.537191 -0.272253 -0.227676 153 0 76
0.390025 0.347931 0.380337 76 0 153
-0.281277 -0.572687 0.379678 204 51 127
0.537412 0.748749 0.323299 153 0 76
-0.432786 -0.780278 0.238094 153 0 76
-0.284495 -0.780278 -0.302575 153 0 76
0.537191 0.323186 0.036741 153 0 76
0.100814 0.786496 0.187824 153 0 76
-0.073638 0.099150 -0.371064 153 0 76
0.083927 -0.454055 0.379679 204 51 127
0.404863 0.450455 0.379678 76 0 153
-0.270666 0.124551 -0.371064 153 0 76
-0.454577 -0.746539 -0.370822 153 0 76
-0.313144 -0.643719 0.379678 204 51 127
0.190516 -0.466437 -0.371064 153 0 76
-0.507987 -0.609612 0.119490 153 0 76
-0.480251 -0.294939 0.385416 204 51 127
0.401164 0.786496 0.204154 153 0 76
0.235223 0.698792 0.379771 76 0 153
-0.507987 -0.353756 -0.250925 153 0 76
-0.267301 0.307732 -0.371064 153 0 76
0.537191 -0.308204 -0.033570 153 0 76
0.537524 0.102179 0.009511 153 0 76
0.441978 -0.303216 0.379678 204 51 127
0.536217 0.394071 -0.352699 153 0 76
0.537191 -0.673681 0.199306 153 0 76
0.228076 -0.780278 0.085046 153 0 76
-0.464280 0.596226 0.391095 153 0 76
0.516942 -0.587637 0.379773 204 51 127
0.410630 0.394851 0.379951 76 0 153
0.114184 0.786496 0.035244 153 0 76
-0.168879 0.027866 0.379837 204 51 127
0.027993 0.198199 0.379678 76 0 153
0.537191 -0.489686 -0.030591 153 0 76
0.537191 -0.395346 -0.283271 153 0 76
-0.138616 0.786749 0.108724 153 0 76
-0.002894 -0.508902 0.379678 204 51 127
-0.430268 -0.780175 0.337361 153 0 76
0.535553 -0.081522 -0.356540 153 0 76
0.138347 0.312698 -0.371064 153 0 76
-0.455741 -0.419321 0.395469 0 0 255
-0.507987 0.678767 -0.247921 153 0 76
-0.059211 -0.515058 0.379678 204 51 127
-0.325642 -0.452262 0.379678 204 51 127
0.537524 -0.391095 0.188892 153 0 76
-0.339227 -0.144962 -0.371064 153 0 76
-0.507987 -0.317687 0.142828 153 0 76
-0.507987 0.347388 -0.207942 153 0 76
0.537191 0.135470 0.230285 153 0 76
-0.199183 0.633386 -0.371064 153 0 76
-0.079885 0.160312 0.379678 204 51 127
-0.270660 -0.780278 -0.158886 153 0 76
0.403396 0.786496 0.285063 153 0 76
0.251201 0.126911 -0.371064 153 0 76
0.205097 -0.457669 0.380101 204 51 127
-0.174084 -0.541128 0.379678 204 51 127
-0.507987 -0.038203 0.002311 153 0 76
-0.247139 -0.780278 0.196249 153 0 76
-0.352412 -0.181245 0.379538 204 51 127
-0.507987 0.507482 -0.017933 153 0 76
-0.381924 -0.138058 0.386598 204 51 127
0.476209 0.524472 -0.371055 153 0 76
-0.473995 0.271951 0.380438 153 0 76
-0.132606 -0.172552 0.380051 204 51 127
-0.087650 -0.599168 -0.371064 153 0 76
-0.211796 0.786559 0.010427 153 0 76
0.088282 0.786682 -0.338586 153 0 76
0.409183 -0.780278 0.067715 153 0 76
-0.507987 0.322046 0.223340 153 0 76
-0.507987 -0.080563 0.079183 153 0 76
0.514508 0.772253 0.373955 153 0 76
-0.507987 0.693908 0.283436 153 0 76
-0.041121 0.632085 0.379677 76 0 153
0.537213 0.537545 -0.120264 153 0 76
0.251623 -0.371153 -0.371064 153 0 76
-0.063732 -0.696640 -0.371064 153 0 76
0.247838 0.416191 0.380011 76 0 153
-0.021903 0.671682 -0.371064 153 0 76
-0.282369 -0.084039 0.379732 204 51 127
0.237941 0.511631 0.379708 76 0 153
0.533642 0.777638 -0.134925 153 0 76
-0.417065 0.346875 -0.371064 153 0 76
0.390090 0.786541 -0.191368 153 0 76
-0.265311 0.078671 -0.371064 153 0 76
0.536219 -0.042723 -0.352687 153 0 76
-0.277822 0.734862 -0.370968 153 0 76
-0.291534 0.615514 0.380119 76 0 153
0.267164 0.786714 0.344314 153 0 76
0.524007 0.180853 -0.368978 153 0 76
0.374472 -0.261555 0.379678 204 51 127
0.537232 0.380661 -0.244376 153 0 76
0.140359 0.786496 0.001410 153 0 76
-0.431621 0.786496 -0.064802 153 0 76
-0.253398 -0.252069 -0.371064 153 0 76
0.449232 0.128466 0.379678 204 51 127
-0.359325 0.673395 0.379920 76 0 153
-0.507932 -0.292985 0.334965 153 0 76
-0.507987 -0.518165 0.276535 153 0 76
-0.040490 0.280983 -0.371064 153 0 76
-0.434938 -0.270270 0.409925 0 0 255
-0.507987 0.501263 -0.205058 153 0 76
0.537191 -0.531297 -0.025648 153 0 76
-0.444267 -0.122822 -0.371058 153 0 76
0.523050 0.249053 -0.369337 153 0 76
-0.245709 -0.664139 0.379678 204 51 127
-0.500379 -0.082689 0.376074 153 0 76
0.537191 0.183584 0.193935 153 0 76
-0.384544 -0.777643 0.361592 153 0 76
-0.507987 -0.409709 -0.154954 153 0 76
-0.255012 -0.111225 -0.371064 153 0 76
0.537461 0.256410 -0.066575 153 0 76
-0.159562 -0.276043 -0.371064 153 0 76
-0.507987 -0.675002 -0.169777 153 0 76
-0.295182 -0.529663 0.379678 204 51 127
0.501733 0.047203 -0.370886 153 0 76
-0.506246 -0.758017 0.255177 153 0 76
-0.180119 -0.682121 0.379680 204 51 127
0.049503 0.786496 0.060913 153 0 76
0.532550 0.778373 0.071073 153 0 76
0.112633 -0.098823 -0.371064 153 0 76
0.059252 0.786496 0.176095 153 0 76
0.258647 -0.073226 0.379678 204 51 127
-0.237162 -0.179996 0.379678 204 51 127
0.512750 -0.779949 -0.054713 153 0 76
-0.507987 0.356954 0.253962 153 0 76
-0.507987 0.123012 -0.060333 153 0 76
0.020135 -0.070228 -0.371064 153 0 76
-0.507987 0.044893 0.078683 153 0 76
0.237173 -0.763401 -0.367171 153 0 76
0.173362 -0.682163 -0.371064 153 0 76
0.138501 -0.604669 0.379678 204 51 127
0.537191 0.513193 0.236289 153 0 76
0.483237 -0.779935 0.346909 153 0 76
0.536979 0.540769 -0.341888 153 0 76
-0.507878 -0.694025 0.341284 153 0 76
-0.507987 -0.301859 0.288311 153 0 76
0.275841 -0.456974 -0.371064 153 0 76
0.123244 -0.260200 -0.371064 153 0 76
0.442080 -0.215716 0.379678 204 51 127
-0.056776 -0.335605 -0.371064 153 0 76
-0.507987 -0.283203 0.068930 153 0 76
0.282999 0.786828 -0.306932 153 0 76
-0.071261 -0.168762 0.380016 204 51 127
-0.114212 -0.152477 -0.371064 153 0 76
0.005925 -0.674482 0.379678 204 51 127
-0.292460 0.372962 -0.371064 153 0 76
0.537206 -0.541773 0.181874 153 0 76
0.537191 0.493394 0.153029 153 0 76
-0.007292 -0.780278 0.105243 153 0 76
-0.507987 0.498305 -0.277039 153 0 76
