ply
format ascii 1.0
element vertex 1269
property float x
property float y
property float z
property uchar red
property uchar green
property uchar blue
end_header
0.495171 -0.274453 -0.367137 153 0 76
0.329389 0.783569 -0.094211 153 0 76
-0.167393 0.783569 0.320962 153 0 76
0.534263 -0.640803 0.034595 153 0 76
-0.299740 -0.776352 0.163149 153 0 76
-0.483448 0.516487 -0.367137 153 0 76
-0.494454 -0.576216 0.376751 153 0 76
-0.504060 0.440743 -0.295235 153 0 76
-0.502452 -0.312277 0.356514 153 0 76
-0.049786 -0.619817 0.376751 204 51 127
0.208508 -0.089699 -0.367137 153 0 76
-0.504060 -0.490683 -0.294109 153 0 76
-0.504060 -0.366169 0.343196 153 0 76
-0.116529 0.520595 0.376751 76 0 153
0.257053 0.439141 0.376751 76 0 153
0.330448 0.783569 0.054356 153 0 76
-0.504060 -0.698416 -0.335018 153 0 76
0.273243 -0.776352 -0.302742 153 0 76
-0.338141 0.783569 0.125765 153 0 76
0.511093 -0.776352 0.177279 153 0 76
0.534263 -0.563107 0.153811 153 0 76
-0.472584 -0.385152 0.376751 204 51 127
-0.118537 0.783569 0.107536 153 0 76
-0.504060 0.009708 0.170045 153 0 76
-0.504060 0.762736 -0.292943 153 0 76
0.346881 0.243185 -0.367137 153 0 76
0.196806 -0.212078 -0.367137 153 0 76
0.411580 -0.157152 0.376751 204 51 127
0.534263 0.579703 0.231462 153 0 76
-0.354330 -0.757018 -0.367137 153 0 76
0.451877 -0.571146 -0.367137 153 0 76
0.022827 0.032026 -0.367137 153 0 76
0.095908 -0.037166 -0.367137 153 0 76
-0.319494 -0.294517 -0.367137 153 0 76
-0.504060 -0.490607 0.374450 153 0 76
-0.356116 -0.515189 -0.367137 153 0 76
-0.504060 0.432823 0.245903 153 0 76
-0.239979 -0.776352 0.083093 153 0 76
-0.166738 -0.469559 -0.367137 153 0 76
-0.269376 -0.776352 -0.291162 153 0 76
0.510819 0.414260 0.376751 153 0 76
-0.504060 0.504306 -0.079705 153 0 76
0.534263 0.714652 -0.067007 153 0 76
0.106464 -0.214658 0.376751 204 51 127
0.534263 -0.222570 0.326976 153 0 76
-0.504060 0.274379 -0.340429 153 0 76
0.534263 0.624829 -0.311394 153 0 76
0.534263 0.730812 0.132285 153 0 76
0.299806 0.730048 -0.367137 153 0 76
-0.026943 0.144028 0.376751 204 51 127
0.257645 0.783569 0.142591 153 0 76
0.277043 -0.776352 -0.068013 153 0 76
-0.436810 -0.118486 0.376751 0 0 255
-0.445883 -0.776352 -0.068117 153 0 76
-0.301087 -0.728995 0.376751 204 51 127
0.533212 0.464941 0.356514 153 0 76
-0.007421 -0.776352 0.202357 153 0 76
-0.253180 -0.405018 -0.367137 153 0 76
0.355510 -0.474452 0.376751 204 51 127
-0.382211 0.273411 -0.367137 153 0 76
-0.043330 0.783569 0.082744 153 0 76
-0.354068 -0.776352 0.286583 153 0 76
-0.068442 0.224500 -0.367137 153 0 76
0.067079 -0.776352 -0.169206 153 0 76
-0.460868 -0.776352 0.218030 153 0 76
-0.137952 0.783569 -0.076500 153 0 76
0.348083 0.192289 -0.367137 153 0 76
-0.080866 0.148050 0.376751 204 51 127
0.534263 0.507858 0.243523 153 0 76
-0.166022 0.783569 -0.035590 153 0 76
-0.094318 0.010982 -0.367137 153 0 76
-0.504060 -0.364759 0.119674 153 0 76
0.534263 0.668128 0.190180 153 0 76
0.258304 0.778894 0.376751 153 0 76
-0.151166 -0.196423 -0.367137 153 0 76
0.534263 0.543686 0.227643 153 0 76
-0.031484 -0.010851 0.376751 204 51 127
0.063579 0.618016 0.376751 76 0 153
-0.504060 -0.175790 -0.274780 153 0 76
0.177117 -0.495451 -0.367137 153 0 76
-0.447166 -0.776352 0.362539 153 0 76
-0.504060 -0.549969 -0.129940 153 0 76
-0.504060 -0.267609 0.372038 153 0 76
0.534263 -0.475979 -0.326739 153 0 76
-0.312961 -0.677478 0.376751 204 51 127
0.460786 0.713245 -0.367137 153 0 76
-0.474454 0.079501 0.376751 204 51 127
0.534263 -0.052697 0.020074 153 0 76
-0.504060 -0.448457 0.294002 153 0 76
-0.343115 -0.328717 0.376751 204 51 127
-0.040128 -0.376144 0.376751 204 51 127
0.237854 -0.619794 -0.367137 153 0 76
0.319912 0.273476 -0.367137 153 0 76
0.115418 -0.776352 -0.127678 153 0 76
0.534263 -0.220453 -0.036977 153 0 76
0.534263 -0.452005 0.106527 153 0 76
-0.315505 -0.776352 0.043025 153 0 76
-0.442737 -0.678480 -0.367137 153 0 76
-0.365075 0.783569 -0.358951 153 0 76
0.043273 -0.520953 -0.367137 153 0 76
-0.078736 0.783569 0.018417 153 0 76
-0.504060 0.070373 -0.049037 153 0 76
0.227384 0.366995 -0.367137 153 0 76
-0.111708 -0.776352 -0.205419 153 0 76
0.453532 -0.776352 -0.311313 153 0 76
-0.219450 -0.776352 -0.312621 153 0 76
-0.085388 -0.385297 -0.367137 153 0 76
0.404383 -0.460487 0.376751 204 51 127
-0.286236 -0.545278 0.376751 204 51 127
0.534263 0.182054 0.000331 153 0 76
0.159259 0.783569 -0.086383 153 0 76
-0.504060 0.464286 -0.243477 153 0 76
0.534263 0.315304 -0.068595 153 0 76
0.113291 0.783569 0.167935 153 0 76
0.171487 -0.776352 0.157983 153 0 76
0.369327 0.398555 0.376751 76 0 153
0.326699 0.783569 0.249147 153 0 76
-0.504060 0.548701 -0.131551 153 0 76
-0.428028 0.251658 -0.367137 153 0 76
-0.504060 0.179168 0.082365 153 0 76
-0.340764 0.783569 -0.114735 153 0 76
-0.208667 -0.776352 -0.346019 153 0 76
-0.270399 -0.295599 0.376751 204 51 127
-0.501184 -0.063137 0.376751 153 0 76
0.237885 -0.776352 -0.036966 153 0 76
0.534263 -0.432949 0.162177 153 0 76
0.195145 -0.423583 -0.367137 153 0 76
-0.093622 -0.738557 0.376751 204 51 127
-0.504060 0.511545 0.111772 153 0 76
0.534263 -0.640019 -0.137815 153 0 76
0.350092 -0.776352 0.224432 153 0 76
-0.143984 -0.776352 0.192094 153 0 76
0.038085 -0.264632 0.376751 204 51 127
-0.398989 -0.629186 0.376751 204 51 127
0.534263 -0.712380 -0.298541 153 0 76
-0.271825 -0.387657 -0.367137 153 0 76
0.534263 -0.292554 -0.058793 153 0 76
0.534263 0.054830 0.223655 153 0 76
0.534263 -0.300472 0.196467 153 0 76
0.117320 0.783569 -0.004581 153 0 76
-0.296829 -0.754842 0.376751 153 0 76
-0.503871 0.620984 0.350383 153 0 76
-0.504060 0.703281 0.211525 153 0 76
-0.404298 0.612603 0.376751 153 0 76
0.156863 -0.166139 0.376751 204 51 127
-0.424975 0.540046 0.376751 153 0 76
-0.288825 0.783569 0.049608 153 0 76
0.292808 -0.505985 -0.367137 153 0 76
-0.504060 0.297299 0.036210 153 0 76
-0.252659 -0.110580 -0.367137 153 0 76
0.125649 -0.008944 0.376751 204 51 127
0.430992 0.700081 -0.367137 153 0 76
-0.217008 -0.193148 0.376751 204 51 127
-0.504060 0.747747 0.242022 153 0 76
-0.294030 -0.023452 -0.367137 153 0 76
0.534263 0.059555 -0.203229 153 0 76
0.117817 -0.305079 -0.367137 153 0 76
0.201968 0.700115 0.376751 76 0 153
0.099301 0.783569 0.037584 153 0 76
-0.303080 0.719401 -0.367137 153 0 76
0.159360 -0.718539 -0.367137 153 0 76
0.461813 0.783569 0.132672 153 0 76
0.405806 -0.417901 0.376751 204 51 127
0.374887 0.783569 0.306377 153 0 76
-0.263162 -0.776352 -0.074322 153 0 76
0.141268 0.507078 0.376751 76 0 153
-0.234123 0.254439 -0.367137 153 0 76
0.245401 -0.776352 0.357126 153 0 76
0.200167 -0.478528 0.376751 204 51 127
0.338625 0.783569 0.317847 153 0 76
-0.088539 -0.751172 -0.367137 153 0 76
0.029239 -0.776352 0.027203 153 0 76
0.188571 0.495502 -0.367137 153 0 76
-0.504060 0.144077 0.047703 153 0 76
0.346340 -0.183561 -0.367137 153 0 76
-0.480480 0.161230 -0.367137 153 0 76
0.534263 0.760521 0.027937 153 0 76
-0.261462 0.783569 0.229386 153 0 76
0.534263 0.313982 0.166053 153 0 76
-0.502802 0.101070 0.356514 153 0 76
-0.504060 0.218410 0.118287 153 0 76
-0.504060 -0.041569 -0.057794 153 0 76
0.049715 0.534964 0.376751 76 0 153
0.534263 0.130305 0.213777 153 0 76
0.300828 0.168811 0.376751 204 51 127
0.462486 -0.776352 -0.159033 153 0 76
0.507222 0.783569 0.009168 153 0 76
-0.363597 0.260108 0.376751 76 0 153
-0.384521 -0.462858 0.376751 204 51 127
0.048700 0.560677 -0.367137 153 0 76
0.534263 0.074714 -0.106897 153 0 76
0.534263 -0.070537 0.093845 153 0 76
-0.404986 -0.776352 0.036261 153 0 76
-0.438095 0.671674 0.376751 76 0 153
-0.099512 0.070292 0.376751 204 51 127
-0.210885 -0.776352 -0.182083 153 0 76
0.462655 0.783569 0.178526 153 0 76
0.534263 0.555972 0.165708 153 0 76
0.404313 -0.540294 -0.367137 153 0 76
-0.309209 0.783569 0.170877 153 0 76
0.534263 -0.633638 -0.326069 153 0 76
0.534263 0.462881 -0.205238 153 0 76
-0.187833 -0.588533 0.376751 204 51 127
-0.128533 -0.776352 -0.118120 153 0 76
0.534263 0.690859 -0.356242 153 0 76
0.334259 0.221776 -0.367137 153 0 76
0.261508 -0.264568 -0.367137 153 0 76
-0.504060 0.187335 -0.118460 153 0 76
0.029863 0.194318 0.376751 76 0 153
-0.504060 -0.545679 0.058064 153 0 76
0.534263 0.302532 -0.026968 153 0 76
0.534263 -0.236609 0.155020 153 0 76
-0.275358 0.321610 -0.367137 153 0 76
0.156684 0.726676 0.376751 76 0 153
0.362380 -0.691963 -0.367137 153 0 76
0.404047 -0.776352 -0.366170 153 0 76
-0.504060 0.521529 -0.340097 153 0 76
-0.189466 -0.087990 0.376751 204 51 127
-0.072067 0.783569 -0.099961 153 0 76
0.061765 0.783569 0.255874 153 0 76
-0.284085 0.783569 -0.254671 153 0 76
0.011370 -0.189131 -0.367137 153 0 76
-0.146386 0.720283 -0.367137 153 0 76
0.534263 0.508993 0.374319 153 0 76
-0.504060 -0.538355 0.141809 153 0 76
-0.426648 -0.490706 -0.367137 153 0 76
-0.278017 0.303243 0.376751 76 0 153
0.361476 0.783569 -0.218590 153 0 76
0.473332 -0.776352 -0.034130 153 0 76
0.214528 0.617833 0.376751 76 0 153
-0.370901 0.301579 0.376751 76 0 153
0.534263 -0.057437 -0.103735 153 0 76
-0.407785 0.743894 -0.367137 153 0 76
0.282802 0.749086 0.376751 76 0 153
0.033161 -0.776352 0.333417 153 0 76
-0.504060 -0.182589 -0.044542 153 0 76
-0.504060 0.337076 0.071806 153 0 76
0.534263 -0.262614 0.165185 153 0 76
-0.504060 0.658854 0.016859 153 0 76
0.348020 -0.776352 -0.127516 153 0 76
-0.479772 -0.439657 0.376751 204 51 127
-0.281142 0.253355 0.376751 76 0 153
-0.252701 0.673324 0.376751 76 0 153
0.534263 -0.543689 0.014725 153 0 76
-0.504060 -0.325334 0.199791 153 0 76
0.389316 -0.009591 -0.367137 153 0 76
-0.504060 0.304743 -0.286403 153 0 76
-0.123538 -0.359686 0.376751 204 51 127
-0.504060 -0.189888 -0.339081 153 0 76
0.279497 0.022608 0.376751 204 51 127
0.216289 -0.776352 0.156127 153 0 76
-0.504060 0.474444 -0.080030 153 0 76
-0.271476 -0.491269 0.376751 204 51 127
0.013182 -0.178154 0.376751 204 51 127
-0.504060 0.348756 0.015690 153 0 76
-0.300376 -0.203184 -0.367137 153 0 76
-0.486156 0.660484 -0.367137 153 0 76
-0.032428 -0.435595 0.376751 204 51 127
0.323566 0.716859 0.376751 76 0 153
0.534263 0.677338 -0.310504 153 0 76
0.068658 0.726263 -0.367137 153 0 76
0.479773 -0.776352 -0.210453 153 0 76
-0.398724 0.184802 -0.367137 153 0 76
-0.155894 0.783569 0.216866 153 0 76
0.235873 0.783569 -0.301341 153 0 76
-0.196781 -0.217866 -0.367137 153 0 76
-0.350027 0.783569 -0.310339 153 0 76
0.145237 0.783569 -0.136795 153 0 76
0.236833 0.446770 -0.367137 153 0 76
-0.197863 -0.050061 0.376751 204 51 127
0.483427 0.458396 -0.367137 153 0 76
-0.504060 -0.415642 0.048276 153 0 76
-0.323634 -0.239231 -0.367137 153 0 76
-0.504060 0.021884 0.126658 153 0 76
0.534263 0.589514 0.345307 153 0 76
-0.226795 -0.776352 -0.135998 153 0 76
-0.150124 0.042066 -0.367137 153 0 76
0.534263 -0.111641 0.334982 153 0 76
0.534263 0.092054 0.269063 153 0 76
-0.411122 -0.776352 0.147838 153 0 76
-0.442751 -0.477272 0.376751 0 0 255
0.534263 -0.486203 -0.282473 153 0 76
0.137430 -0.716415 0.376751 204 51 127
0.534263 0.337114 0.054569 153 0 76
-0.135838 -0.776352 -0.036107 153 0 76
-0.504060 0.132476 -0.114447 153 0 76
-0.426032 0.783569 -0.349782 153 0 76
-0.504060 -0.465176 0.148977 153 0 76
-0.475819 0.709297 -0.367137 153 0 76
-0.504060 0.680111 -0.179836 153 0 76
-0.504060 0.041755 -0.349650 153 0 76
0.343077 0.399933 0.376751 76 0 153
0.209798 0.783569 0.204836 153 0 76
0.502347 -0.554444 -0.367137 153 0 76
-0.384688 0.686663 0.376751 76 0 153
-0.362004 -0.460503 -0.367137 153 0 76
-0.504060 -0.026884 0.033990 153 0 76
0.078272 0.057571 -0.367137 153 0 76
0.510037 0.013868 0.376751 204 51 127
0.149537 0.783569 0.009183 153 0 76
-0.504060 0.475922 0.326625 153 0 76
-0.180705 0.103963 -0.367137 153 0 76
-0.118225 -0.263291 -0.367137 153 0 76
-0.504060 -0.575000 -0.058949 153 0 76
-0.000776 0.413954 -0.367137 153 0 76
-0.442223 -0.292786 -0.367137 153 0 76
0.468621 0.783569 -0.325823 153 0 76
0.315614 -0.224128 -0.367137 153 0 76
-0.255912 0.755946 0.376751 76 0 153
-0.175252 -0.667470 -0.367137 153 0 76
-0.487218 0.355705 -0.367137 153 0 76
-0.401754 0.547716 -0.367137 153 0 76
-0.158947 0.783569 0.044727 153 0 76
-0.504060 0.194557 0.204571 153 0 76
0.534263 -0.767919 0.288589 153 0 76
-0.151248 0.273037 -0.367137 153 0 76
0.002290 0.756690 0.376751 76 0 153
0.387047 -0.241530 0.376751 204 51 127
0.335024 0.062189 -0.367137 153 0 76
0.523559 -0.776352 -0.362600 153 0 76
0.317024 -0.067526 -0.367137 153 0 76
0.534263 0.436680 -0.080534 153 0 76
-0.276763 -0.776352 -0.152230 153 0 76
0.308140 -0.292043 0.376751 204 51 127
0.534263 -0.451659 -0.305916 153 0 76
-0.501135 0.533165 0.354513 153 0 76
-0.075007 -0.487788 0.376751 204 51 127
0.213221 -0.526084 -0.367137 153 0 76
0.132117 0.569815 -0.367137 153 0 76
-0.504060 0.765597 0.281865 153 0 76
-0.247924 -0.776352 0.224070 153 0 76
0.491671 0.351344 -0.367137 153 0 76
-0.035417 0.783569 0.350336 153 0 76
-0.081702 -0.776352 0.278080 153 0 76
0.534263 0.753109 -0.115101 153 0 76
-0.015130 0.517819 0.376751 76 0 153
0.349420 -0.776352 0.274974 153 0 76
0.157418 -0.776352 0.092744 153 0 76
0.214402 0.783569 -0.099727 153 0 76
-0.504060 -0.393346 -0.361575 153 0 76
-0.277787 -0.776352 -0.239304 153 0 76
0.049499 -0.776352 -0.335487 153 0 76
-0.215598 0.497506 0.376751 76 0 153
0.534263 0.770677 -0.135221 153 0 76
-0.207343 0.635689 -0.367137 153 0 76
-0.504060 -0.209277 -0.245464 153 0 76
0.316469 -0.372212 -0.367137 153 0 76
-0.504060 -0.662441 -0.100874 153 0 76
0.473565 0.446280 0.376751 76 0 153
0.534263 -0.678238 -0.299432 153 0 76
0.345126 0.513165 0.376751 76 0 153
-0.504060 0.221633 0.040021 153 0 76
-0.146004 0.183722 -0.367137 153 0 76
-0.504060 -0.281134 0.094777 153 0 76
0.084166 -0.776352 0.148375 153 0 76
0.314329 -0.776352 0.242270 153 0 76
0.243393 -0.492870 -0.367137 153 0 76
0.369956 0.271921 0.376751 76 0 153
-0.496417 -0.617240 -0.367137 153 0 76
0.434008 -0.607889 -0.367137 153 0 76
-0.053110 -0.277598 0.376751 204 51 127
0.534263 0.321148 -0.273348 153 0 76
0.206594 0.783569 0.038207 153 0 76
0.413095 -0.378883 -0.367137 153 0 76
-0.108319 -0.776352 -0.363129 153 0 76
-0.110893 -0.776352 -0.044564 153 0 76
0.534263 0.015036 -0.218458 153 0 76
-0.452339 0.163011 -0.367137 153 0 76
-0.504060 -0.600150 0.194541 153 0 76
-0.051697 -0.776352 -0.313624 153 0 76
0.346405 0.783569 -0.343038 153 0 76
-0.504060 0.296148 -0.202690 153 0 76
0.180495 -0.128960 -0.367137 153 0 76
-0.009043 -0.530850 -0.367137 153 0 76
-0.504060 -0.272699 -0.282834 153 0 76
-0.136177 0.783569 -0.039672 153 0 76
0.174171 -0.776352 0.338327 153 0 76
-0.271421 -0.776352 0.096509 153 0 76
-0.102272 -0.776352 -0.319743 153 0 76
0.116104 -0.748628 0.376751 204 51 127
0.273818 0.094618 0.376751 204 51 127
-0.236145 0.671823 -0.367137 153 0 76
-0.202502 0.783569 -0.168744 153 0 76
-0.283909 -0.345852 0.376751 204 51 127
0.063325 0.783569 0.017684 153 0 76
-0.316653 0.193825 -0.367137 153 0 76
-0.108698 -0.140681 -0.367137 153 0 76
0.019486 -0.776352 -0.177773 153 0 76
-0.504060 -0.074596 0.020145 153 0 76
0.244942 0.783569 0.285880 153 0 76
0.136176 -0.652322 0.376751 204 51 127
-0.462914 0.580694 -0.367137 153 0 76
-0.230302 0.399769 -0.367137 153 0 76
0.244607 0.585942 0.376751 76 0 153
0.332227 0.665060 -0.367137 153 0 76
0.163004 -0.737717 0.376751 204 51 127
0.285781 -0.776352 0.091955 153 0 76
0.103404 0.748343 -0.367137 153 0 76
0.335270 -0.512934 0.376751 204 51 127
0.518698 -0.612714 -0.367137 153 0 76
0.365419 0.730490 0.376751 76 0 153
-0.504060 0.729754 0.181365 153 0 76
0.496106 -0.776352 0.047294 153 0 76
-0.168263 -0.692512 -0.367137 153 0 76
-0.182040 -0.334593 -0.367137 153 0 76
-0.041596 0.103179 -0.367137 153 0 76
-0.022914 0.298255 -0.367137 153 0 76
0.006405 -0.776352 0.309389 153 0 76
0.480379 0.595778 0.376751 76 0 153
-0.160298 -0.776352 0.368263 153 0 76
-0.187024 -0.776352 0.350085 153 0 76
0.495536 0.783569 0.117727 153 0 76
0.420575 0.783569 0.042617 153 0 76
-0.420193 -0.506705 0.400671 0 0 255
0.534263 -0.600391 0.216608 153 0 76
0.363568 -0.776352 0.087562 153 0 76
0.534263 -0.417061 -0.169091 153 0 76
0.423241 -0.198649 0.376751 204 51 127
-0.504060 -0.387561 0.252346 153 0 76
-0.504060 -0.268967 0.148540 153 0 76
0.313792 0.012881 0.376751 204 51 127
0.396950 0.783569 0.350212 153 0 76
0.534263 0.712571 -0.305097 153 0 76
-0.000605 0.540625 -0.367137 153 0 76
-0.504060 0.578971 0.076208 153 0 76
0.118470 0.783569 0.283998 153 0 76
0.534263 0.140468 0.362499 153 0 76
0.038445 -0.142945 0.376751 204 51 127
-0.283691 -0.776352 0.133119 153 0 76
0.534263 0.340052 -0.013682 153 0 76
0.512998 -0.750587 -0.367137 153 0 76
0.534263 -0.069305 0.361915 153 0 76
-0.272588 -0.681283 0.376751 204 51 127
0.433257 -0.243891 -0.367137 153 0 76
-0.504060 0.469920 0.089560 153 0 76
-0.249138 -0.457847 -0.367137 153 0 76
0.016005 -0.577075 0.376751 204 51 127
0.244317 -0.776352 -0.152474 153 0 76
-0.440667 0.407688 0.394989 153 0 76
0.260286 -0.022067 -0.367137 153 0 76
-0.503771 0.783569 0.126084 153 0 76
-0.284469 -0.749152 -0.367137 153 0 76
0.534263 -0.337780 -0.154763 153 0 76
-0.496707 0.783569 0.065036 153 0 76
-0.504060 -0.005766 0.319084 153 0 76
-0.199237 0.063030 -0.367137 153 0 76
0.374365 -0.495710 -0.367137 153 0 76
0.150418 0.722244 -0.367137 153 0 76
0.534263 -0.332632 0.012527 153 0 76
0.426422 0.533225 0.376751 76 0 153
0.534263 -0.464302 0.270071 153 0 76
0.062231 0.783569 -0.337001 153 0 76
0.534263 0.213653 -0.245939 153 0 76
-0.504060 0.639884 -0.052124 153 0 76
-0.099563 -0.265814 0.376751 204 51 127
-0.504060 -0.121209 -0.016524 153 0 76
0.284479 0.783569 -0.034904 153 0 76
-0.240436 0.408623 0.376751 76 0 153
0.534263 -0.429204 0.218929 153 0 76
-0.408763 -0.776352 -0.057781 153 0 76
-0.126878 0.783569 -0.192303 153 0 76
0.363990 -0.776352 0.374938 153 0 76
0.120380 0.327490 -0.367137 153 0 76
0.534263 0.117790 0.065080 153 0 76
0.159482 0.347498 -0.367137 153 0 76
0.534263 -0.071657 0.258702 153 0 76
0.534263 0.470998 -0.114522 153 0 76
-0.355840 -0.710158 -0.367137 153 0 76
-0.040713 -0.776352 0.056017 153 0 76
0.534263 0.054601 0.364288 153 0 76
-0.402118 -0.523790 0.376751 0 0 255
0.174600 0.698000 0.376751 76 0 153
0.100263 -0.442864 -0.367137 153 0 76
0.534263 -0.327817 0.238318 153 0 76
0.345086 0.119885 -0.367137 153 0 76
0.438037 0.783569 -0.366160 153 0 76
-0.273180 -0.438569 -0.367137 153 0 76
-0.274545 0.574508 0.376751 76 0 153
0.534263 -0.409468 0.263429 153 0 76
0.199359 0.783569 -0.003438 153 0 76
0.075994 0.287883 0.376751 76 0 153
0.449072 -0.776352 0.327346 153 0 76
0.101796 0.410316 -0.367137 153 0 76
-0.390468 -0.477032 -0.367137 153 0 76
-0.384463 -0.654907 0.376751 204 51 127
0.534263 -0.753125 0.002300 153 0 76
0.534263 0.064113 -0.280998 153 0 76
-0.061129 0.542126 -0.367137 153 0 76
-0.177200 -0.179666 -0.367137 153 0 76
-0.504060 -0.471114 0.008497 153 0 76
-0.474345 -0.020372 0.376751 0 0 255
-0.504060 -0.735348 0.015764 153 0 76
0.534263 -0.273087 0.240231 153 0 76
0.448665 -0.289708 -0.367137 153 0 76
-0.280929 0.783569 0.373450 76 0 153
0.534263 -0.262517 -0.180164 153 0 76
-0.117269 -0.776352 -0.265053 153 0 76
0.324192 0.599440 0.376751 76 0 153
-0.504060 -0.490560 -0.258380 153 0 76
0.449808 -0.338787 -0.367137 153 0 76
-0.504060 -0.590821 0.250243 153 0 76
-0.504060 -0.043660 0.156453 153 0 76
0.534263 0.398108 0.143455 153 0 76
0.534263 -0.425413 -0.263049 153 0 76
-0.504060 0.399031 -0.166146 153 0 76
-0.492032 0.783569 -0.291103 153 0 76
-0.504060 0.021625 -0.285318 153 0 76
0.380021 0.061224 -0.367137 153 0 76
0.396008 0.740744 -0.367137 153 0 76
0.084681 -0.770575 -0.367137 153 0 76
-0.504060 0.315995 0.153504 153 0 76
0.534263 -0.402910 0.063314 153 0 76
0.096826 -0.462118 0.376751 204 51 127
0.518141 0.255371 0.376751 76 0 153
0.534263 0.267066 0.103060 153 0 76
-0.168290 -0.199054 0.376751 204 51 127
0.534263 0.139124 -0.011273 153 0 76
0.078074 0.766075 0.376751 76 0 153
0.252878 0.412595 0.376751 76 0 153
0.462629 -0.138555 -0.367137 153 0 76
-0.504060 -0.380015 -0.187391 153 0 76
-0.336838 0.568462 0.376751 76 0 153
-0.159335 -0.776352 0.006079 153 0 76
-0.213913 -0.321124 -0.367137 153 0 76
0.467904 -0.762016 0.376751 153 0 76
-0.425456 0.783569 -0.306546 153 0 76
-0.009717 0.165543 0.376751 76 0 153
0.534263 0.717317 -0.136417 153 0 76
0.404278 -0.776352 0.203205 153 0 76
-0.331838 -0.754589 0.376751 153 0 76
0.534263 -0.665464 -0.225878 153 0 76
0.507619 -0.034602 0.376751 204 51 127
0.284064 -0.776352 0.283405 153 0 76
-0.060082 0.594637 -0.367137 153 0 76
-0.034947 -0.727260 -0.367137 153 0 76
-0.504060 0.359792 -0.193931 153 0 76
-0.504060 0.576698 -0.221992 153 0 76
-0.500905 0.783569 -0.183173 153 0 76
0.005559 -0.585817 -0.367137 153 0 76
-0.312908 0.098581 0.376751 204 51 127
0.088903 0.783569 -0.053259 153 0 76
0.334700 -0.424937 -0.367137 153 0 76
-0.064643 -0.711028 0.376751 204 51 127
0.380484 0.482959 -0.367137 153 0 76
0.239703 0.783569 0.209312 153 0 76
0.482653 -0.003424 0.376751 204 51 127
-0.045439 0.783569 -0.115865 153 0 76
-0.100307 0.126886 -0.367137 153 0 76
-0.149678 0.783569 -0.162089 153 0 76
-0.183998 0.783569 -0.347592 153 0 76
-0.088808 -0.776352 0.169951 153 0 76
0.020124 0.221746 0.376751 76 0 153
-0.430177 -0.776352 -0.298560 153 0 76
-0.390250 -0.776352 0.312157 153 0 76
0.338025 0.783569 0.026864 153 0 76
0.365759 0.783569 0.272440 153 0 76
-0.504060 -0.660258 0.316960 153 0 76
-0.480882 0.621843 0.376751 153 0 76
-0.280872 0.715270 0.376751 76 0 153
-0.504060 -0.068332 0.293817 153 0 76
0.309618 0.182769 -0.367137 153 0 76
0.150893 -0.767400 0.376751 153 0 76
-0.504060 -0.132105 -0.149642 153 0 76
0.457031 0.360579 -0.367137 153 0 76
0.495404 -0.776352 0.258095 153 0 76
-0.478791 0.783569 0.227795 153 0 76
0.212690 -0.730168 -0.367137 153 0 76
0.534263 0.741588 0.169110 153 0 76
-0.504060 0.497816 -0.124068 153 0 76
0.270640 -0.468377 -0.367137 153 0 76
-0.504060 0.266128 0.295092 153 0 76
-0.504060 -0.082837 0.111573 153 0 76
0.426832 0.099101 0.376751 204 51 127
0.534263 0.317653 -0.093970 153 0 76
0.534263 -0.641938 0.308354 153 0 76
0.282227 -0.251313 -0.367137 153 0 76
-0.156188 0.462333 -0.367137 153 0 76
0.534263 0.596253 0.276990 153 0 76
-0.249424 -0.471742 0.376751 204 51 127
0.412004 -0.497415 -0.367137 153 0 76
-0.504060 -0.236589 0.059218 153 0 76
0.506952 0.783569 -0.313472 153 0 76
-0.292221 0.139836 0.376751 204 51 127
0.534263 0.280909 0.190223 153 0 76
-0.480380 0.163530 0.376751 153 0 76
0.458463 0.783569 -0.044650 153 0 76
0.499989 -0.776352 -0.301002 153 0 76
-0.165802 -0.776352 -0.318025 153 0 76
-0.504060 0.717202 0.288844 153 0 76
-0.493527 0.141272 -0.367137 153 0 76
0.320380 0.743485 -0.367137 153 0 76
-0.283513 0.783569 0.005893 153 0 76
0.534263 0.759560 -0.052381 153 0 76
-0.271623 0.128250 -0.367137 153 0 76
0.477995 -0.221489 -0.367137 153 0 76
-0.435479 -0.264138 -0.367137 153 0 76
-0.105163 0.783569 -0.081101 153 0 76
-0.192406 0.329397 -0.367137 153 0 76
-0.050669 0.783569 -0.009664 153 0 76
-0.415821 -0.045771 0.376751 204 51 127
-0.212901 0.009592 -0.367137 153 0 76
-0.446329 0.132277 -0.367137 153 0 76
-0.023544 0.420973 -0.367137 153 0 76
0.345645 -0.726557 -0.367137 153 0 76
-0.504060 -0.725944 0.216412 153 0 76
0.125740 0.783569 -0.057359 153 0 76
0.534263 0.153734 0.316252 153 0 76
0.534263 0.248295 0.294811 153 0 76
0.349352 0.783569 -0.141824 153 0 76
-0.504060 0.283102 0.370504 153 0 76
0.534263 -0.400629 0.347515 153 0 76
0.289412 0.575791 0.376751 76 0 153
-0.144331 0.336242 0.376751 76 0 153
0.534263 -0.456727 0.055453 153 0 76
0.311563 0.279176 0.376751 76 0 153
-0.444586 0.489871 0.376751 153 0 76
0.534263 0.265450 0.077465 153 0 76
-0.447083 -0.630142 -0.367137 153 0 76
-0.468133 -0.776352 -0.261111 153 0 76
-0.361714 -0.690714 0.376751 204 51 127
0.534263 -0.475063 -0.100401 153 0 76
0.346496 -0.015686 -0.367137 153 0 76
-0.504060 0.473682 -0.332623 153 0 76
-0.195723 0.724461 -0.367137 153 0 76
0.534263 0.764760 -0.350112 153 0 76
-0.504060 0.275347 0.340517 153 0 76
0.145107 0.435194 -0.367137 153 0 76
0.191622 -0.365004 0.376751 204 51 127
0.534263 0.029104 0.316815 153 0 76
-0.424862 0.513101 -0.367137 153 0 76
0.466445 0.039869 0.376751 204 51 127
0.026218 -0.556381 -0.367137 153 0 76
0.534263 0.007313 -0.338889 153 0 76
-0.390326 0.783569 -0.094751 153 0 76
-0.504060 0.247062 0.335105 153 0 76
-0.071895 -0.776352 -0.034839 153 0 76
0.534263 -0.002918 -0.009493 153 0 76
-0.126466 -0.776352 0.354187 153 0 76
0.251577 -0.700333 -0.367137 153 0 76
-0.199861 0.783569 -0.216301 153 0 76
-0.220951 0.783569 0.143344 153 0 76
-0.504060 -0.642870 -0.297364 153 0 76
0.020730 -0.735467 0.376751 204 51 127
0.300287 0.331843 0.376751 76 0 153
-0.219550 -0.776352 0.305039 153 0 76
-0.504060 0.741356 -0.026705 153 0 76
0.110675 -0.776352 0.003192 153 0 76
0.256573 -0.776352 0.216907 153 0 76
-0.147171 0.198897 0.376751 76 0 153
0.529805 -0.776352 0.334188 153 0 76
-0.504060 0.183964 -0.194255 153 0 76
0.365231 -0.223682 -0.367137 153 0 76
0.268325 0.348653 0.376751 76 0 153
0.534263 -0.363506 -0.269125 153 0 76
-0.504060 -0.685872 0.107666 153 0 76
0.090305 -0.283524 -0.367137 153 0 76
-0.504060 0.270083 -0.252247 153 0 76
-0.176978 -0.776352 -0.293589 153 0 76
0.478716 -0.776352 0.360749 153 0 76
0.044719 0.783569 0.060443 153 0 76
-0.504060 -0.661724 -0.183717 153 0 76
0.291353 -0.669675 -0.367137 153 0 76
0.221949 -0.776352 -0.365966 153 0 76
-0.011430 0.461542 0.376751 76 0 153
-0.150626 -0.110015 -0.367137 153 0 76
-0.240507 0.350373 0.376751 76 0 153
0.534263 -0.300781 -0.091124 153 0 76
0.144147 0.783569 0.138907 153 0 76
0.356633 -0.776352 0.009840 153 0 76
0.534263 -0.424273 -0.050995 153 0 76
-0.420193 -0.305489 0.398978 0 0 255
0.519088 0.460714 0.376751 76 0 153
-0.504060 -0.662375 0.212655 153 0 76
-0.504060 -0.336355 0.149986 153 0 76
0.272053 -0.245669 0.376751 204 51 127
0.534263 -0.646515 0.368879 153 0 76
0.526463 -0.458851 0.354780 153 0 76
0.288700 0.783569 0.106412 153 0 76
0.534263 0.385718 0.335389 153 0 76
-0.217731 0.067899 0.376751 204 51 127
0.404916 0.783569 -0.206293 153 0 76
0.281084 0.062740 -0.367137 153 0 76
0.534263 0.444891 0.136122 153 0 76
-0.435770 0.254896 0.376751 76 0 153
0.252101 -0.085583 -0.367137 153 0 76
-0.129977 -0.070052 -0.367137 153 0 76
-0.089031 -0.213340 0.376751 204 51 127
-0.412874 -0.527672 -0.367137 153 0 76
-0.285014 0.019686 -0.367137 153 0 76
-0.384136 0.783569 0.007812 153 0 76
0.291725 0.783569 -0.172356 153 0 76
0.534263 0.422546 0.017377 153 0 76
-0.504060 -0.653306 -0.215611 153 0 76
0.114034 0.196930 0.376751 76 0 153
-0.499990 -0.356360 -0.367137 153 0 76
-0.266550 0.783569 0.310679 153 0 76
0.074881 -0.482024 -0.367137 153 0 76
-0.504060 -0.371887 0.184503 153 0 76
-0.101031 -0.776352 0.122138 153 0 76
0.534263 -0.603335 -0.023869 153 0 76
0.534263 -0.563048 0.100652 153 0 76
0.534263 -0.267721 -0.318367 153 0 76
0.281034 0.783569 0.151314 153 0 76
-0.487147 -0.776352 0.152504 153 0 76
0.519415 0.783569 0.324241 153 0 76
0.498963 -0.655926 0.376751 204 51 127
0.248629 0.668338 -0.367137 153 0 76
0.264866 -0.776352 0.154683 153 0 76
-0.156184 -0.776352 -0.212125 153 0 76
0.534263 0.664579 -0.182646 153 0 76
-0.504060 -0.493701 0.030846 153 0 76
-0.504060 0.012868 0.093536 153 0 76
-0.259205 0.568638 -0.367137 153 0 76
0.174701 -0.776352 0.304534 153 0 76
0.534263 0.130855 -0.055762 153 0 76
0.417803 -0.578116 0.376751 204 51 127
0.381435 -0.776352 -0.203029 153 0 76
0.092365 -0.770761 0.376751 153 0 76
0.534263 0.174716 0.284131 153 0 76
-0.284994 0.783569 -0.348819 153 0 76
0.534263 0.127804 -0.103689 153 0 76
0.397349 0.783569 0.101789 153 0 76
-0.310954 -0.643477 -0.367137 153 0 76
0.534263 -0.011817 -0.223406 153 0 76
-0.504060 0.703468 -0.258211 153 0 76
0.036224 0.783569 0.106212 153 0 76
-0.504060 0.550510 -0.090902 153 0 76
0.534263 0.237405 0.038709 153 0 76
0.122608 0.707838 0.376751 76 0 153
0.534263 -0.763391 0.214717 153 0 76
-0.007432 -0.776352 -0.097887 153 0 76
-0.447057 0.162990 0.376751 204 51 127
0.534263 -0.251637 -0.207278 153 0 76
-0.382463 -0.776352 -0.015618 153 0 76
0.399955 0.779093 -0.367137 153 0 76
0.534263 0.000146 0.376612 153 0 76
-0.132370 -0.397210 -0.367137 153 0 76
0.515583 -0.226943 0.376751 153 0 76
-0.504060 0.315578 -0.075963 153 0 76
-0.328895 0.334881 -0.367137 153 0 76
0.239554 -0.123176 0.376751 204 51 127
0.284627 -0.298692 -0.367137 153 0 76
0.002251 0.177840 -0.367137 153 0 76
-0.504060 0.099019 0.083769 153 0 76
0.534263 0.388774 -0.015653 153 0 76
0.400687 -0.776352 0.119300 153 0 76
-0.191024 0.001241 0.376751 204 51 127
-0.256249 0.087815 -0.367137 153 0 76
0.068392 -0.776352 0.082822 153 0 76
-0.417514 -0.170648 -0.367137 153 0 76
-0.299741 -0.249506 0.376751 204 51 127
0.515463 0.730785 -0.367137 153 0 76
-0.065217 -0.776352 0.090918 153 0 76
0.314566 0.783569 0.145938 153 0 76
0.534263 0.520298 -0.036025 153 0 76
-0.436845 0.433263 0.376751 153 0 76
-0.504060 0.002549 0.143902 153 0 76
-0.271279 0.783569 0.189998 153 0 76
0.428598 0.783569 0.012251 153 0 76
0.508236 -0.741969 0.376751 153 0 76
-0.043906 -0.776352 -0.026148 153 0 76
-0.110917 -0.023171 -0.367137 153 0 76
0.303333 -0.202941 0.376751 204 51 127
0.534263 -0.285973 -0.011294 153 0 76
-0.198979 -0.776352 -0.097011 153 0 76
0.505405 0.753436 0.376751 76 0 153
-0.358181 0.115998 0.376751 204 51 127
-0.399819 0.294150 0.376751 76 0 153
-0.410843 0.783569 0.047265 153 0 76
-0.422155 -0.428862 0.405353 0 0 255
0.534263 0.622270 0.147186 153 0 76
0.197250 -0.776352 0.297767 153 0 76
-0.109667 -0.776352 0.019995 153 0 76
-0.398960 -0.039974 -0.367137 153 0 76
-0.504060 0.456601 0.058759 153 0 76
0.278031 -0.035408 0.376751 204 51 127
0.534263 0.531917 -0.202581 153 0 76
0.534263 -0.319426 -0.330324 153 0 76
0.380467 -0.727716 0.376751 204 51 127
-0.118032 -0.358524 -0.367137 153 0 76
0.534263 -0.756582 -0.156576 153 0 76
-0.474995 -0.354409 -0.367137 153 0 76
-0.140621 -0.700962 -0.367137 153 0 76
-0.423377 0.028055 0.376751 0 0 255
-0.179484 -0.776352 0.158901 153 0 76
0.210932 0.783569 -0.302272 153 0 76
-0.504060 -0.071688 0.046438 153 0 76
0.481877 0.783569 0.328662 153 0 76
-0.476416 0.780083 -0.367137 153 0 76
-0.210584 0.293824 -0.367137 153 0 76
0.465464 0.783569 -0.145573 153 0 76
0.343242 -0.510708 -0.367137 153 0 76
-0.323909 -0.165668 -0.367137 153 0 76
0.053791 -0.776352 0.143203 153 0 76
-0.504060 -0.643575 0.133924 153 0 76
-0.424849 -0.776352 -0.254303 153 0 76
0.207908 0.428159 0.376751 76 0 153
-0.013957 -0.776352 0.035439 153 0 76
-0.504060 0.511316 0.259294 153 0 76
-0.504060 -0.098057 -0.029996 153 0 76
-0.504060 0.402234 0.127590 153 0 76
0.062456 0.383872 0.376751 76 0 153
-0.504060 -0.655278 0.046062 153 0 76
-0.076154 0.685479 0.376751 76 0 153
0.534263 0.181168 -0.081729 153 0 76
0.534263 0.657124 0.232583 153 0 76
-0.504060 0.239099 0.303676 153 0 76
-0.320694 -0.378330 -0.367137 153 0 76
0.302495 0.652983 0.376751 76 0 153
-0.003930 0.380061 -0.367137 153 0 76
-0.038480 0.202825 0.376751 76 0 153
0.368910 0.593352 0.376751 76 0 153
-0.158414 -0.613941 -0.367137 153 0 76
0.407210 0.280160 0.376751 76 0 153
0.534263 -0.748022 0.260750 153 0 76
0.534263 -0.404787 0.173881 153 0 76
-0.464616 0.783569 0.048206 153 0 76
0.432769 -0.776352 -0.286621 153 0 76
0.523908 -0.279782 0.376751 204 51 127
0.233129 -0.069263 -0.367137 153 0 76
-0.274466 0.783569 -0.135466 153 0 76
-0.310244 0.439888 -0.367137 153 0 76
0.499855 -0.499213 -0.367137 153 0 76
0.138625 0.151975 -0.367137 153 0 76
0.299443 0.047605 -0.367137 153 0 76
0.534263 0.716744 -0.247164 153 0 76
-0.199868 -0.647011 0.376751 204 51 127
0.086581 -0.082478 0.376751 204 51 127
-0.386946 0.336850 0.376751 76 0 153
0.378578 0.783569 0.169930 153 0 76
0.437127 0.208840 0.376751 76 0 153
-0.504060 0.114448 0.136813 153 0 76
0.250211 -0.471123 0.376751 204 51 127
-0.134124 0.439522 -0.367137 153 0 76
0.014634 0.783569 0.024060 153 0 76
0.534263 -0.061225 -0.019070 153 0 76
-0.443636 -0.458573 -0.367137 153 0 76
0.534263 -0.219829 -0.245902 153 0 76
0.526463 -0.753033 0.353593 153 0 76
0.534263 -0.102097 -0.045920 153 0 76
0.381311 0.670739 -0.367137 153 0 76
0.234391 0.502476 0.376751 76 0 153
-0.334873 0.783569 -0.357085 153 0 76
-0.504060 0.397171 -0.353710 153 0 76
-0.504060 -0.678265 -0.080959 153 0 76
-0.426448 0.611587 -0.367137 153 0 76
0.364162 0.783569 -0.181819 153 0 76
-0.234759 0.353921 -0.367137 153 0 76
0.534263 0.267108 -0.235284 153 0 76
-0.439554 -0.776352 0.110122 153 0 76
0.534263 -0.234685 0.281362 153 0 76
-0.504060 0.688963 -0.151918 153 0 76
-0.504060 0.289841 0.114452 153 0 76
-0.504060 -0.592494 -0.103723 153 0 76
0.534263 0.235718 0.182636 153 0 76
0.250309 0.183702 0.376751 76 0 153
0.534263 0.048208 -0.347395 153 0 76
-0.420193 -0.398289 0.402515 0 0 255
-0.504060 0.045545 0.083496 153 0 76
0.186134 -0.047333 -0.367137 153 0 76
-0.015687 -0.685504 -0.367137 153 0 76
0.429047 -0.690332 -0.367137 153 0 76
-0.420193 -0.091340 0.398720 204 51 127
0.534263 0.522118 0.051118 153 0 76
0.534263 -0.632456 -0.087650 153 0 76
-0.175704 0.523386 -0.367137 153 0 76
-0.504060 -0.100907 0.186588 153 0 76
-0.101041 0.451388 -0.367137 153 0 76
-0.504060 0.064885 0.315823 153 0 76
-0.498288 0.688485 0.376751 153 0 76
-0.368374 0.136294 -0.367137 153 0 76
-0.504060 -0.359609 -0.280629 153 0 76
-0.504060 -0.148446 0.367941 153 0 76
0.534263 0.258853 0.267860 153 0 76
-0.303781 -0.688983 -0.367137 153 0 76
-0.440667 -0.356072 0.397321 0 0 255
-0.184545 0.783569 0.206892 153 0 76
0.120719 -0.461548 -0.367137 153 0 76
-0.002689 -0.650637 -0.367137 153 0 76
-0.504060 -0.419553 -0.305131 153 0 76
-0.504060 -0.053566 0.261962 153 0 76
0.213889 -0.776352 -0.085566 153 0 76
0.126844 -0.776352 0.248855 153 0 76
-0.504060 -0.373188 0.022507 153 0 76
-0.402772 -0.103617 -0.367137 153 0 76
0.052417 0.783569 -0.236176 153 0 76
0.534263 -0.365253 -0.120952 153 0 76
-0.120281 0.619541 -0.367137 153 0 76
-0.076627 -0.776352 -0.172606 153 0 76
0.084541 0.051500 0.376751 204 51 127
-0.504060 -0.696216 -0.215799 153 0 76
-0.504060 -0.276721 -0.167516 153 0 76
-0.504060 0.116099 0.196765 153 0 76
-0.449648 -0.131363 -0.367137 153 0 76
-0.045836 0.765823 -0.367137 153 0 76
0.398907 0.783569 0.000183 153 0 76
0.204302 -0.776352 -0.023134 153 0 76
-0.305995 0.783569 0.368926 153 0 76
0.326136 -0.776352 0.309082 153 0 76
-0.074807 0.375663 -0.367137 153 0 76
-0.408328 -0.709782 -0.367137 153 0 76
0.271164 0.533359 0.376751 76 0 153
-0.282723 0.274991 -0.367137 153 0 76
-0.419059 0.379013 0.376751 153 0 76
-0.421977 0.648481 0.376751 153 0 76
0.527818 0.184302 0.356514 153 0 76
-0.411640 -0.776352 -0.329481 153 0 76
0.394267 0.110865 -0.367137 153 0 76
0.126537 0.783569 -0.170108 153 0 76
-0.336579 0.679516 0.376751 76 0 153
-0.432559 -0.163534 0.376751 0 0 255
0.281555 0.783569 0.231026 153 0 76
-0.192203 -0.066002 -0.367137 153 0 76
-0.439638 0.783569 -0.057320 153 0 76
0.024154 -0.776352 0.093912 153 0 76
-0.305739 0.783569 0.275046 153 0 76
-0.315363 -0.776352 -0.078210 153 0 76
-0.075836 -0.242817 0.376751 204 51 127
-0.476148 0.783569 0.298718 153 0 76
0.385618 -0.689351 -0.367137 153 0 76
0.238245 -0.776352 -0.189188 153 0 76
0.279712 0.686332 0.376751 76 0 153
-0.413391 0.356856 -0.367137 153 0 76
0.174145 0.768895 -0.367137 153 0 76
-0.355643 -0.374116 0.376751 204 51 127
-0.092290 -0.776352 -0.340809 153 0 76
0.020119 -0.776352 -0.339867 153 0 76
-0.504060 -0.091360 0.297195 153 0 76
0.357553 -0.003305 0.376751 204 51 127
0.333645 0.514822 -0.367137 153 0 76
-0.504060 0.693122 -0.318879 153 0 76
0.534263 0.592078 -0.179306 153 0 76
-0.300165 -0.414814 -0.367137 153 0 76
-0.411620 -0.776352 -0.141236 153 0 76
-0.101270 -0.776352 0.207638 153 0 76
-0.504060 -0.446658 0.094185 153 0 76
-0.069316 -0.776352 0.043092 153 0 76
-0.376943 0.439163 -0.367137 153 0 76
0.297564 -0.357143 0.376751 204 51 127
-0.014339 -0.650607 0.376751 204 51 127
0.381478 -0.627773 0.376751 204 51 127
-0.504060 0.070388 0.161438 153 0 76
-0.369296 0.783569 0.183436 153 0 76
-0.161094 0.357009 -0.367137 153 0 76
0.534263 -0.492831 0.093569 153 0 76
0.424029 0.632381 0.376751 76 0 153
0.477188 -0.469339 0.376751 204 51 127
-0.501135 0.508006 0.353273 153 0 76
0.270556 -0.070203 -0.367137 153 0 76
0.534263 -0.119917 0.276942 153 0 76
0.519076 0.231308 -0.367137 153 0 76
-0.358931 -0.776352 0.229009 153 0 76
0.377555 -0.048811 0.376751 204 51 127
0.021179 -0.060310 -0.367137 153 0 76
0.534263 -0.579282 -0.101944 153 0 76
-0.504060 0.370357 0.294145 153 0 76
0.308723 -0.536444 0.376751 204 51 127
0.424073 -0.776352 0.154586 153 0 76
0.521150 -0.587947 0.376751 204 51 127
-0.057889 -0.776352 -0.157368 153 0 76
-0.504060 0.759934 -0.109212 153 0 76
0.249324 -0.156020 -0.367137 153 0 76
0.220026 0.659908 0.376751 76 0 153
0.209212 0.484032 -0.367137 153 0 76
-0.412277 -0.682585 0.376751 204 51 127
-0.244188 0.783569 -0.313133 153 0 76
0.534263 0.270224 -0.182257 153 0 76
0.534263 0.668400 -0.101593 153 0 76
-0.236270 -0.776352 -0.267948 153 0 76
0.534263 -0.039062 -0.219706 153 0 76
-0.132980 0.507959 -0.367137 153 0 76
-0.424378 -0.018850 0.388892 0 0 255
-0.504060 0.192641 -0.218913 153 0 76
-0.352864 -0.776352 -0.257873 153 0 76
-0.504060 0.628251 -0.130812 153 0 76
-0.366731 0.660099 -0.367137 153 0 76
0.096080 -0.776352 -0.040196 153 0 76
-0.333766 -0.405286 0.376751 204 51 127
-0.504060 0.252220 -0.169207 153 0 76
0.119168 -0.693305 0.376751 204 51 127
-0.504060 0.397279 0.300843 153 0 76
0.216939 0.298028 0.376751 76 0 153
-0.174907 0.783226 0.376751 153 0 76
-0.504060 -0.151346 0.181038 153 0 76
0.448476 0.783569 -0.066548 153 0 76
0.534263 -0.264591 0.201437 153 0 76
0.319729 -0.468560 -0.367137 153 0 76
0.534263 0.051006 0.087206 153 0 76
0.435847 0.760548 -0.367137 153 0 76
-0.162306 0.138296 -0.367137 153 0 76
0.287012 0.783569 -0.325623 153 0 76
-0.207982 0.361547 -0.367137 153 0 76
0.269884 -0.215006 0.376751 204 51 127
0.356389 -0.241703 0.376751 204 51 127
-0.504060 -0.744359 -0.122308 153 0 76
0.448433 0.783569 0.045756 153 0 76
0.436890 -0.265789 0.376751 204 51 127
0.272246 -0.776352 -0.258384 153 0 76
0.143943 -0.569582 0.376751 204 51 127
-0.504060 0.670303 -0.103615 153 0 76
0.324693 -0.776352 -0.125038 153 0 76
0.534263 -0.159701 -0.254622 153 0 76
-0.504060 0.587249 0.109258 153 0 76
-0.504060 0.513688 -0.222962 153 0 76
-0.504060 -0.231851 -0.163302 153 0 76
-0.504060 0.155554 0.226690 153 0 76
-0.504060 -0.739123 0.327647 153 0 76
-0.131998 0.783569 0.372024 153 0 76
-0.292832 -0.348247 -0.367137 153 0 76
0.413790 0.500898 -0.367137 153 0 76
0.534263 0.567870 0.045806 153 0 76
0.353150 0.437110 0.376751 76 0 153
0.025121 0.783569 -0.036050 153 0 76
-0.504060 -0.116203 -0.064391 153 0 76
-0.470670 -0.776352 0.188607 153 0 76
-0.197067 0.783569 0.187464 153 0 76
-0.490718 -0.062327 -0.367137 153 0 76
-0.504060 -0.096242 -0.112699 153 0 76
-0.504060 0.389474 -0.294659 153 0 76
0.093719 0.668007 0.376751 76 0 153
-0.487832 0.485606 -0.367137 153 0 76
-0.241064 -0.776352 -0.235483 153 0 76
0.229173 -0.776352 -0.264802 153 0 76
0.534263 0.348602 -0.100288 153 0 76
-0.318912 0.526759 -0.367137 153 0 76
-0.018667 -0.029616 -0.367137 153 0 76
0.520082 -0.324081 0.376751 204 51 127
0.534263 0.208679 0.285862 153 0 76
0.108134 -0.776352 0.192608 153 0 76
0.257844 0.783569 -0.083455 153 0 76
0.449847 -0.776352 0.160065 153 0 76
-0.258242 0.718630 -0.367137 153 0 76
0.534263 0.747222 -0.226910 153 0 76
-0.504060 -0.338206 0.218941 153 0 76
-0.190330 0.783569 -0.280236 153 0 76
0.270482 0.783569 0.194573 153 0 76
0.534263 -0.643982 -0.272823 153 0 76
0.438167 -0.749555 0.376751 153 0 76
-0.110117 -0.008061 0.376751 204 51 127
-0.361016 0.071664 0.376751 204 51 127
0.408615 0.783569 -0.096365 153 0 76
0.175099 0.353831 0.376751 76 0 153
0.534263 -0.729527 0.202642 153 0 76
-0.170102 -0.535987 -0.367137 153 0 76
-0.504060 0.027395 0.300714 153 0 76
0.534263 0.739361 0.001893 153 0 76
-0.504060 0.202500 0.327709 153 0 76
0.375351 -0.199595 0.376751 204 51 127
0.321744 0.506823 0.376751 76 0 153
0.042010 0.724271 -0.367137 153 0 76
-0.340256 0.783569 0.066631 153 0 76
-0.085110 0.783569 0.106250 153 0 76
-0.504060 0.249167 0.068220 153 0 76
0.381153 -0.314471 -0.367137 153 0 76
0.534263 0.582766 0.199277 153 0 76
0.201354 0.049888 0.376751 204 51 127
-0.277597 0.168684 -0.367137 153 0 76
-0.366903 -0.562294 -0.367137 153 0 76
-0.093457 0.345852 0.376751 76 0 153
-0.097296 -0.698968 -0.367137 153 0 76
0.352655 -0.776352 0.040151 153 0 76
0.534263 -0.635469 0.253643 153 0 76
0.079502 -0.617000 0.376751 204 51 127
0.232642 0.016022 0.376751 204 51 127
-0.177671 -0.103083 -0.367137 153 0 76
0.427902 -0.134479 -0.367137 153 0 76
0.088950 -0.725257 0.376751 204 51 127
-0.504060 0.128997 -0.334601 153 0 76
0.507248 -0.589025 -0.367137 153 0 76
-0.220450 -0.227591 -0.367137 153 0 76
0.086188 -0.531467 -0.367137 153 0 76
0.495896 0.783569 -0.185411 153 0 76
-0.217536 0.504779 -0.367137 153 0 76
0.191785 -0.776352 0.212760 153 0 76
0.534263 -0.492501 0.362979 153 0 76
-0.502121 -0.656397 0.356514 153 0 76
0.244145 -0.776352 -0.103134 153 0 76
-0.412741 0.710955 -0.367137 153 0 76
-0.326504 0.719919 0.376751 76 0 153
-0.135789 -0.021253 -0.367137 153 0 76
-0.501135 0.699937 0.356022 153 0 76
0.313464 0.400510 -0.367137 153 0 76
0.046808 -0.776352 -0.192742 153 0 76
-0.504060 -0.349780 0.359283 153 0 76
0.534263 -0.229366 0.240051 153 0 76
-0.504060 -0.146805 0.081999 153 0 76
0.507400 0.783569 -0.141989 153 0 76
0.432508 -0.741986 -0.367137 153 0 76
0.534263 0.616162 0.313241 153 0 76
0.242392 0.587657 -0.367137 153 0 76
0.534263 0.226997 0.116699 153 0 76
-0.089802 0.663145 0.376751 76 0 153
-0.139320 0.539929 -0.367137 153 0 76
-0.504060 -0.133332 0.166325 153 0 76
-0.355567 0.024483 0.376751 204 51 127
-0.230830 -0.776352 0.376395 153 0 76
-0.420193 -0.251059 0.397974 0 0 255
0.138532 0.783569 0.256047 153 0 76
-0.412968 0.466754 -0.367137 153 0 76
0.443445 -0.177618 -0.367137 153 0 76
0.534263 -0.163907 -0.203087 153 0 76
0.275821 0.151504 -0.367137 153 0 76
0.526463 0.276170 0.351211 153 0 76
0.534263 -0.138019 0.003135 153 0 76
0.214267 0.783569 -0.228762 153 0 76
-0.219916 -0.150703 -0.367137 153 0 76
0.012865 0.681958 0.376751 76 0 153
0.159063 -0.523497 -0.367137 153 0 76
0.172521 0.648168 0.376751 76 0 153
0.437512 0.673824 0.376751 76 0 153
-0.381549 -0.510430 -0.367137 153 0 76
-0.137347 0.587796 -0.367137 153 0 76
0.534263 -0.394892 -0.081070 153 0 76
0.240376 0.763788 0.376751 76 0 153
0.275204 -0.046296 -0.367137 153 0 76
0.326966 -0.320748 0.376751 204 51 127
0.412460 -0.617113 0.376751 204 51 127
0.052439 0.009552 0.376751 204 51 127
-0.504060 -0.189197 -0.189136 153 0 76
0.534263 0.618741 -0.015135 153 0 76
-0.298930 0.666709 -0.367137 153 0 76
0.474854 -0.725920 0.376751 204 51 127
-0.115878 0.738726 -0.367137 153 0 76
0.067626 -0.507960 0.376751 204 51 127
0.347289 -0.760004 0.376751 153 0 76
0.270222 -0.776352 0.197972 153 0 76
-0.504060 0.342101 0.264555 153 0 76
0.534263 -0.382311 -0.034033 153 0 76
0.534263 0.098320 -0.314489 153 0 76
-0.504060 -0.751464 0.107687 153 0 76
-0.504060 -0.380478 -0.162199 153 0 76
-0.095857 0.783569 0.300162 153 0 76
-0.440667 -0.051081 0.402899 0 0 255
-0.033966 -0.141882 -0.367137 153 0 76
0.059226 0.783569 0.116531 153 0 76
0.137825 -0.059499 -0.367137 153 0 76
0.367659 -0.680919 0.376751 204 51 127
-0.247824 -0.776352 -0.306267 153 0 76
0.121580 0.612141 0.376751 76 0 153
-0.232397 0.777666 0.376751 153 0 76
-0.504060 -0.638807 0.170529 153 0 76
-0.504060 -0.268061 -0.056275 153 0 76
-0.393688 0.783569 -0.178906 153 0 76
-0.334556 -0.170845 0.376751 204 51 127
-0.292096 0.230546 0.376751 76 0 153
0.534263 0.765757 0.179919 153 0 76
0.360306 -0.776352 -0.292109 153 0 76
-0.504060 -0.166620 0.350123 153 0 76
-0.504060 0.484474 0.244500 153 0 76
0.534263 -0.642579 0.188517 153 0 76
0.371370 0.783569 -0.134513 153 0 76
-0.504060 -0.266542 -0.137128 153 0 76
-0.504060 -0.572253 0.322379 153 0 76
-0.121166 -0.039734 0.376751 204 51 127
0.447542 -0.380911 0.376751 204 51 127
0.120215 0.279625 -0.367137 153 0 76
0.534263 0.665598 -0.073609 153 0 76
-0.504060 -0.466524 0.308046 153 0 76
-0.006599 -0.174617 -0.367137 153 0 76
-0.009060 0.080258 0.376751 204 51 127
-0.504060 -0.314733 0.250821 153 0 76
-0.344556 0.783569 -0.273487 153 0 76
0.534263 -0.442456 0.188884 153 0 76
0.534263 0.003000 0.253385 153 0 76
-0.489628 0.273342 -0.367137 153 0 76
-0.175334 0.783569 0.164078 153 0 76
-0.203577 0.783569 -0.021978 153 0 76
-0.155162 -0.038532 0.376751 204 51 127
-0.222480 0.574799 0.376751 76 0 153
-0.243818 0.478331 -0.367137 153 0 76
-0.047100 0.562130 -0.367137 153 0 76
-0.364115 0.346579 -0.367137 153 0 76
-0.406243 -0.287396 0.376751 0 0 255
-0.504060 0.400212 -0.250500 153 0 76
-0.185452 0.655301 -0.367137 153 0 76
0.534263 0.359961 0.024337 153 0 76
0.529378 0.187425 -0.367137 153 0 76
-0.167643 0.412411 -0.367137 153 0 76
0.534263 -0.116153 -0.268007 153 0 76
-0.022592 0.566310 -0.367137 153 0 76
0.534263 0.011238 0.086345 153 0 76
0.248841 -0.449523 -0.367137 153 0 76
0.131429 -0.424221 0.376751 204 51 127
0.264901 -0.287291 -0.367137 153 0 76
0.513032 -0.134972 -0.367137 153 0 76
0.200057 -0.021027 0.376751 204 51 127
-0.169139 -0.776352 0.233393 153 0 76
0.534263 -0.370173 0.024458 153 0 76
0.534263 0.670490 -0.286683 153 0 76
0.019137 0.434122 -0.367137 153 0 76
0.066460 -0.732588 0.376751 204 51 127
0.161738 -0.027504 -0.367137 153 0 76
0.395030 -0.776352 0.335799 153 0 76
-0.136678 -0.612455 0.376751 204 51 127
-0.504060 0.285805 0.259694 153 0 76
-0.157072 -0.776352 -0.130126 153 0 76
0.534263 -0.708863 0.289242 153 0 76
-0.504060 -0.742455 -0.359726 153 0 76
0.364940 -0.169193 0.376751 204 51 127
0.454566 0.364479 0.376751 76 0 153
0.296362 -0.643733 0.376751 204 51 127
0.531451 -0.044400 -0.367137 153 0 76
-0.503092 -0.627842 0.356514 153 0 76
0.440443 -0.300395 0.376751 204 51 127
0.534263 -0.033366 -0.331336 153 0 76
-0.311076 -0.776352 0.188118 153 0 76
-0.041348 -0.396218 -0.367137 153 0 76
0.534263 -0.318143 -0.143280 153 0 76
-0.303316 0.783569 -0.152319 153 0 76
0.243416 0.783569 0.119008 153 0 76
0.534263 -0.722679 0.335759 153 0 76
0.534263 0.190209 -0.277159 153 0 76
-0.416629 0.085886 0.376751 204 51 127
0.376226 -0.421831 -0.367137 153 0 76
0.189876 0.087025 -0.367137 153 0 76
-0.420193 -0.329104 0.397604 0 0 255
-0.438635 -0.537667 0.376751 204 51 127
-0.504060 0.499818 0.328176 153 0 76
-0.458256 -0.507943 -0.367137 153 0 76
-0.186615 0.783569 0.073217 153 0 76
0.258215 0.783569 -0.106982 153 0 76
-0.064020 0.783569 0.178073 153 0 76
-0.504060 0.600914 -0.323060 153 0 76
0.533948 -0.070856 -0.367137 153 0 76
-0.504060 -0.008015 -0.141378 153 0 76
0.096753 0.783569 0.222478 153 0 76
0.534263 0.400212 0.300999 153 0 76
0.534263 -0.427646 -0.191097 153 0 76
-0.237101 -0.360770 -0.367137 153 0 76
-0.399141 0.010375 -0.367137 153 0 76
-0.108917 -0.544195 0.376751 204 51 127
-0.112107 -0.652594 0.376751 204 51 127
0.534263 -0.463049 -0.033193 153 0 76
0.267151 -0.776352 -0.351048 153 0 76
0.242708 -0.294707 -0.367137 153 0 76
0.534263 0.747844 0.209512 153 0 76
0.360331 0.075736 -0.367137 153 0 76
0.034212 -0.776352 0.157210 153 0 76
-0.056866 0.783569 -0.181022 153 0 76
-0.347705 0.281774 -0.367137 153 0 76
0.534263 0.307076 0.255171 153 0 76
-0.479122 -0.776352 -0.362868 153 0 76
0.032067 -0.480952 -0.367137 153 0 76
-0.109051 0.247970 -0.367137 153 0 76
0.022929 0.783569 -0.124843 153 0 76
-0.305205 -0.563520 -0.367137 153 0 76
-0.504060 -0.221990 0.181879 153 0 76
-0.354778 0.383173 -0.367137 153 0 76
-0.145920 -0.099141 0.376751 204 51 127
0.229521 0.140678 -0.367137 153 0 76
0.534263 -0.292800 -0.353617 153 0 76
0.440638 0.163162 -0.367137 153 0 76
0.534263 -0.257759 0.099244 153 0 76
-0.504060 -0.555938 -0.182728 153 0 76
0.332639 -0.165468 -0.367137 153 0 76
0.534263 -0.324498 0.067568 153 0 76
0.468862 0.783569 0.035884 153 0 76
-0.122781 0.124771 0.376751 204 51 127
0.534263 0.554284 0.189811 153 0 76
-0.504060 -0.182809 0.061219 153 0 76
-0.047420 0.496779 -0.367137 153 0 76
0.498409 -0.630392 -0.367137 153 0 76
0.304814 0.534035 0.376751 76 0 153
-0.402904 0.783569 0.159368 153 0 76
-0.082471 0.754597 0.376751 76 0 153
0.131318 -0.776352 0.050254 153 0 76
0.061899 0.062328 0.376751 204 51 127
-0.071658 0.783569 0.134070 153 0 76
0.483794 0.316799 -0.367137 153 0 76
