ply
format ascii 1.0
element vertex 1275
property float x
property float y
property float z
property uchar red
property uchar green
property uchar blue
end_header
-0.228268 -0.040583 -0.149163 76 0 153
-0.064590 0.033508 0.705122 0 127 127
-0.000546 0.321029 -0.014533 76 0 153
-0.075517 0.143712 -0.015326 0 127 127
0.116739 -0.023110 -0.376171 76 0 153
-0.215911 -0.251267 -0.101589 76 0 153
-0.047661 -0.076682 -0.407016 76 0 153
0.011775 0.141341 -0.409803 76 0 153
0.003224 -0.425880 0.043674 76 0 153
-0.162241 -0.651860 -0.218928 153 0 76
-0.109248 -0.463730 -0.384234 76 0 153
0.035006 0.226388 0.289293 0 127 127
-0.221677 -0.034492 -0.246375 76 0 153
-0.148020 -0.685439 0.015937 153 0 76
-0.074419 0.207264 0.938256 0 127 127
-0.002763 -0.723624 -0.072494 153 0 76
-0.049031 0.497536 -0.089686 0 255 0
-0.030627 0.481526 0.415554 0 255 0
-0.023214 0.016964 0.397853 0 127 127
-0.080800 0.202028 0.799280 0 127 127
-0.056255 0.029045 0.499909 0 127 127
-0.109416 -0.075163 -0.384144 76 0 153
0.061587 0.074490 -0.400608 76 0 153
-0.236337 -0.699711 -0.103829 153 0 76
0.101627 -0.603184 -0.384249 76 0 153
0.030468 0.184371 0.040991 76 0 153
-0.032800 0.534555 0.000158 0 255 0
-0.007520 0.233422 0.695333 0 127 127
0.239410 -0.656041 -0.146614 153 0 76
0.224001 0.461914 -0.184021 0 255 0
-0.015763 0.232610 0.253519 0 127 127
0.139974 -0.104662 -0.358834 76 0 153
0.223009 -0.651860 -0.120234 153 0 76
0.138912 -0.334465 -0.359706 76 0 153
0.044946 0.582611 -0.050640 0 255 0
-0.225859 -0.602351 -0.232588 76 0 153
-0.035950 0.531575 -0.053771 0 255 0
-0.245985 -0.665861 -0.136271 153 0 76
0.209080 -0.289821 -0.262865 76 0 153
-0.009411 -0.658410 0.043812 76 0 153
0.015161 -0.623435 0.042498 76 0 153
-0.176579 0.339719 -0.061665 0 255 0
0.002612 0.015682 0.234587 0 127 127
-0.007523 0.481232 -0.412720 0 255 0
0.003289 0.039952 0.779052 76 153 0
0.190309 -0.072852 -0.301364 76 0 153
0.203162 -0.095286 -0.089654 76 0 153
-0.068075 0.183859 0.033973 76 0 153
-0.115405 -0.370956 -0.380943 76 0 153
0.040663 0.082161 0.938877 76 153 0
-0.136679 -0.651860 -0.201234 153 0 76
-0.166663 -0.097384 -0.024504 76 0 153
0.091008 -0.651860 -0.127749 153 0 76
0.172861 0.261243 -0.041311 76 0 153
-0.197504 -0.723624 -0.068786 153 0 76
-0.106918 -0.723624 -0.301245 153 0 76
-0.204455 0.321029 -0.167060 0 255 0
0.221863 -0.672935 -0.161245 76 0 153
-0.076337 0.205690 0.645314 0 127 127
-0.121111 -0.723015 0.032348 153 0 76
0.144184 -0.723624 -0.022777 153 0 76
0.200309 0.139254 -0.282655 76 0 153
-0.071202 -0.001027 0.830388 76 153 0
-0.096277 -0.676494 -0.132209 76 0 153
0.051590 0.030611 0.109569 0 127 127
-0.204853 0.531690 -0.289084 0 255 0
-0.165448 -0.040167 -0.023024 76 0 153
0.058612 0.582611 -0.138734 0 255 0
0.071400 -0.033031 0.855778 76 153 0
0.209218 -0.364740 -0.262410 76 0 153
0.181238 0.123965 -0.051517 76 0 153
0.222541 -0.554344 -0.198844 76 0 153
0.045113 0.376070 0.008310 0 255 0
0.042292 -0.723624 -0.301300 153 0 76
-0.058403 0.218647 0.281289 0 127 127
-0.225450 0.400687 -0.133034 0 255 0
0.178005 0.085293 -0.047578 76 0 153
-0.003467 0.233756 0.952236 0 127 127
0.125600 0.458678 -0.263541 0 255 0
0.009940 0.009819 0.874778 76 153 0
-0.012657 0.015924 0.064660 0 127 127
0.182629 -0.658283 -0.053212 76 0 153
-0.216766 -0.369661 -0.104406 76 0 153
0.103867 0.141725 0.948511 0 127 127
0.045684 0.027454 0.481781 0 127 127
-0.066629 0.582611 -0.301674 0 255 0
0.085519 0.372074 -0.360898 0 255 0
-0.110849 0.146467 0.813899 0 127 127
0.052937 0.031331 0.630073 0 127 127
-0.028856 0.230558 0.581123 0 127 127
-0.111806 0.138222 0.536069 0 127 127
-0.125207 -0.723624 -0.147498 153 0 76
0.014646 -0.723624 -0.298772 153 0 76
0.079370 0.080475 0.887606 76 153 0
-0.110340 -0.622153 -0.383651 76 0 153
-0.091930 0.439819 -0.040728 0 255 0
-0.152616 0.399387 -0.064714 0 255 0
-0.189775 0.407318 -0.173733 0 255 0
-0.051932 0.582611 -0.325212 0 255 0
0.035707 0.056024 -0.407445 76 0 153
-0.042309 -0.676494 -0.094220 76 0 153
-0.225374 0.127803 -0.132784 76 0 153
-0.150089 0.582611 -0.089840 0 255 0
0.015078 0.231929 0.353273 0 127 127
-0.051635 0.128269 -0.405931 76 0 153
-0.133096 -0.651860 -0.160787 153 0 76
0.059942 -0.316610 -0.401107 76 0 153
-0.229425 0.100186 -0.206055 76 0 153
0.082758 0.066980 0.865223 76 153 0
0.169895 -0.676494 -0.276844 76 0 153
0.194189 -0.275348 -0.294104 76 0 153
0.220771 0.439526 -0.220636 0 255 0
0.163108 0.356905 -0.067020 0 255 0
-0.221495 -0.283812 -0.246974 76 0 153
0.022462 0.506598 0.001975 0 255 0
0.065112 0.294053 0.032568 76 0 153
-0.183977 0.527655 -0.045601 0 255 0
-0.162634 0.174524 -0.020501 76 0 153
-0.066277 -0.676494 0.001203 76 0 153
0.091269 -0.325072 -0.389785 76 0 153
-0.178886 -0.159271 -0.039398 76 0 153
0.205616 -0.133945 -0.094246 76 0 153
0.013613 -0.651860 -0.353271 153 0 76
-0.189866 -0.435795 -0.314193 76 0 153
-0.135178 0.343870 -0.055951 0 255 0
0.208574 -0.507124 -0.102438 76 0 153
0.084209 -0.651860 -0.054995 153 0 76
0.223865 0.357656 -0.181574 0 255 0
0.045340 0.552780 0.038566 0 255 0
-0.229004 -0.021271 -0.210327 76 0 153
0.051419 -0.616722 0.036722 76 0 153
-0.093445 0.062087 0.923533 0 127 127
-0.011932 0.015853 0.201268 0 127 127
-0.202725 0.396589 -0.074628 0 255 0
0.191971 -0.500496 -0.298253 76 0 153
0.080142 -0.278429 0.028009 76 0 153
-0.025024 0.449832 0.042275 0 255 0
-0.041122 0.022003 0.905445 0 127 127
0.136184 0.441562 -0.360140 0 255 0
-0.010658 -0.723624 -0.421005 153 0 76
0.022499 0.480876 0.202866 0 255 0
0.124235 -0.474137 -0.371751 76 0 153
-0.216796 -0.484190 -0.104506 76 0 153
-0.131120 0.385660 -0.330490 0 255 0
-0.219185 -0.259732 -0.254590 76 0 153
-0.104942 0.165939 0.657151 0 127 127
-0.065928 0.034607 0.447100 0 127 127
-0.228348 0.193789 -0.149977 76 0 153
0.141622 0.153542 -0.357481 76 0 153
0.111043 -0.537187 -0.379216 76 0 153
-0.079567 0.485014 0.030487 0 255 0
-0.228815 -0.466353 -0.212250 76 0 153
-0.176641 -0.663546 -0.359420 153 0 76
0.069455 -0.028937 0.910682 76 153 0
-0.087539 -0.048243 -0.395040 76 0 153
0.189195 -0.329004 -0.063524 76 0 153
0.102906 0.147615 0.296903 0 127 127
-0.124560 0.238283 -0.376050 76 0 153
-0.193056 -0.674490 -0.310306 76 0 153
-0.199207 -0.186889 -0.298925 76 0 153
-0.226751 0.149028 -0.137324 76 0 153
0.039956 0.024392 0.826386 0 127 127
0.221569 0.049306 -0.158263 76 0 153
0.022552 0.436352 -0.351636 0 255 0
0.010789 0.472447 -0.320590 0 255 0
0.034733 0.484243 0.052457 0 255 0
0.203375 0.321029 -0.168588 76 0 153
-0.133019 -0.478030 -0.370774 76 0 153
-0.014973 -0.332536 -0.410236 76 0 153
0.061526 0.037227 0.242762 0 127 127
0.204370 0.000487 -0.091914 76 0 153
0.068029 -0.676494 -0.344699 76 0 153
-0.111196 0.104423 0.299428 0 127 127
0.016121 0.103896 0.816087 76 153 0
0.186220 -0.676494 -0.109952 76 0 153
0.094045 -0.651860 -0.345137 153 0 76
-0.079212 0.394755 -0.006062 0 255 0
0.104224 0.138095 0.662707 0 127 127
0.041936 0.223389 0.919819 0 127 127
-0.025790 0.133488 -0.409170 76 0 153
0.220500 0.539747 -0.147402 0 255 0
-0.095119 -0.723624 -0.275911 153 0 76
-0.031508 0.520645 0.057083 0 255 0
-0.160121 -0.651860 -0.069898 153 0 76
-0.208435 -0.368876 -0.281660 76 0 153
-0.086883 0.064866 0.887876 0 127 127
-0.184745 0.582611 -0.289316 0 255 0
0.047970 0.220164 0.572727 0 127 127
0.029437 0.472986 -0.037120 0 255 0
0.146046 0.300774 -0.013120 76 0 153
-0.011930 0.015852 0.304088 0 127 127
0.092491 -0.571047 -0.389132 76 0 153
0.142718 0.284701 -0.356582 76 0 153
-0.018783 0.524201 -0.203613 0 255 0
0.136263 0.463682 -0.230968 0 255 0
0.008552 0.532871 0.003585 0 255 0
-0.071023 0.582611 -0.083981 0 255 0
0.151448 0.206505 -0.017553 76 0 153
-0.010354 0.506063 0.001975 0 255 0
-0.053082 0.558380 -0.405970 0 255 0
-0.110930 0.102642 0.435971 0 127 127
-0.189526 -0.133129 -0.052363 76 0 153
0.069027 0.341011 0.031380 0 255 0
0.220585 -0.641762 -0.218706 76 0 153
0.203445 0.421102 -0.281792 0 255 0
-0.213683 0.526793 -0.273479 0 255 0
-0.079869 -0.453281 -0.397366 76 0 153
-0.219897 -0.159861 -0.252243 76 0 153
0.234263 -0.704510 -0.244942 153 0 76
-0.230324 -0.254715 -0.170043 76 0 153
0.062823 0.321029 -0.050813 76 0 153
0.170286 -0.106796 -0.038173 76 0 153
-0.134686 0.374620 -0.034675 0 255 0
-0.226365 0.271297 -0.136051 76 0 153
0.110196 -0.723624 -0.133339 153 0 76
0.155238 0.534766 -0.020664 0 255 0
0.221467 0.190942 -0.209749 76 0 153
0.022200 0.501261 -0.276735 0 255 0
0.020448 0.010131 0.782249 76 153 0
-0.107695 0.156864 0.827736 0 127 127
0.216264 0.472852 -0.244293 0 255 0
0.029051 0.351426 -0.384282 0 255 0
-0.210624 -0.418299 -0.089406 76 0 153
-0.046046 0.253506 -0.407175 76 0 153
-0.169655 -0.369246 -0.028150 76 0 153
0.131779 0.582611 -0.310230 0 255 0
-0.088051 0.193324 0.258500 0 127 127
-0.243959 -0.651860 -0.218151 153 0 76
0.171844 -0.611045 -0.326900 76 0 153
0.055236 0.516770 -0.194507 0 255 0
0.135725 -0.530138 -0.004650 76 0 153
-0.015684 0.533012 0.301671 0 255 0
0.132084 -0.532305 -0.365309 76 0 153
-0.054261 0.027979 0.212247 0 127 127
-0.228567 0.166520 -0.214766 76 0 153
0.029779 0.500872 0.351335 0 255 0
0.207773 0.170979 -0.267175 76 0 153
0.104509 0.113632 0.547849 0 127 127
0.161960 -0.651860 -0.170677 153 0 76
-0.067361 0.213057 0.784533 0 127 127
0.193303 -0.299514 -0.295762 76 0 153
0.065691 -0.010747 0.895590 76 153 0
-0.051770 -0.131969 0.038919 76 0 153
0.119660 -0.062021 0.007639 76 0 153
-0.071329 0.499706 -0.256970 0 255 0
-0.179058 0.398081 -0.260148 0 255 0
0.017207 -0.272141 0.042297 76 0 153
-0.220297 0.053164 -0.250926 76 0 153
0.004851 0.232936 0.537364 0 127 127
-0.206840 -0.187515 -0.082327 76 0 153
-0.089806 0.191185 0.026056 76 0 153
-0.228683 -0.497605 -0.213589 76 0 153
0.106137 0.472852 -0.100265 0 255 0
0.028220 0.491805 0.021869 0 255 0
0.025631 -0.723624 -0.257542 153 0 76
-0.037643 0.103896 0.869671 76 153 0
0.014364 -0.356821 -0.409548 76 0 153
0.134952 -0.676494 -0.275467 76 0 153
0.056430 0.215642 0.210775 0 127 127
0.045076 0.027128 0.259654 0 127 127
0.092816 0.476443 -0.275652 0 255 0
0.017153 0.427419 0.042302 0 255 0
-0.163806 0.198315 -0.345508 76 0 153
-0.038192 -0.536646 0.040978 76 0 153
0.120951 0.058128 0.006948 76 0 153
-0.226171 0.303176 -0.231559 76 0 153
-0.216593 0.229839 -0.263133 76 0 153
0.154858 0.269061 -0.020352 76 0 153
0.167184 -0.651860 -0.302381 153 0 76
-0.123189 -0.676494 -0.209626 76 0 153
0.219843 0.581276 -0.140736 0 255 0
0.158521 0.321029 -0.086481 76 0 153
-0.104413 0.167073 0.911629 0 127 127
0.041053 0.024978 0.007610 0 127 127
0.065023 0.321029 -0.008776 76 0 153
-0.060442 0.261869 -0.403260 76 0 153
0.196734 0.356583 -0.216460 0 255 0
0.117356 0.139145 -0.375841 76 0 153
0.033729 0.488078 -0.296395 0 255 0
-0.158515 0.371644 -0.308109 0 255 0
-0.225067 0.337651 -0.137858 0 255 0
-0.230027 0.441119 -0.167021 0 255 0
0.084776 0.582611 -0.116495 0 255 0
0.200533 0.383095 -0.282717 0 255 0
-0.230542 0.045607 -0.172257 76 0 153
0.165368 -0.651860 -0.228165 153 0 76
-0.043200 -0.651860 -0.015035 153 0 76
-0.024323 0.017073 0.005201 0 127 127
0.114258 0.187186 0.010526 76 0 153
-0.053076 0.418487 0.038523 0 255 0
-0.168304 -0.651860 -0.136124 153 0 76
-0.116005 -0.723624 -0.027781 153 0 76
0.006597 0.522020 -0.224612 0 255 0
-0.146232 -0.651860 -0.346183 153 0 76
-0.144535 -0.723624 -0.040599 153 0 76
0.093195 0.443504 -0.050289 0 255 0
0.192247 -0.352633 -0.297738 76 0 153
-0.044121 -0.723624 0.015610 153 0 76
-0.166546 -0.723624 -0.206422 153 0 76
-0.016326 -0.161016 0.043131 76 0 153
0.213903 0.442143 -0.253221 0 255 0
0.086904 0.321029 -0.325091 76 0 153
0.195003 -0.155746 -0.074390 76 0 153
0.096168 -0.524596 -0.387166 76 0 153
0.066778 -0.014326 0.815109 76 153 0
-0.190760 0.063421 -0.313105 76 0 153
0.068173 0.284588 -0.398610 76 0 153
0.086262 -0.665101 -0.392461 76 0 153
-0.092490 0.400168 -0.015403 0 255 0
0.212607 0.528654 -0.115731 0 255 0
-0.217109 -0.072268 -0.261435 76 0 153
0.070252 0.204451 0.198902 0 127 127
0.163732 0.429725 -0.231245 0 255 0
-0.227564 -0.566279 -0.142016 76 0 153
-0.027451 0.017856 0.283771 0 127 127
-0.217956 0.249403 -0.108331 76 0 153
-0.042606 0.034439 0.982197 0 127 127
0.167825 0.558353 -0.332121 0 255 0
-0.100582 0.074599 0.419630 0 127 127
-0.188536 -0.658031 -0.051156 153 0 76
-0.067654 -0.001908 0.922953 76 153 0
0.131219 -0.723624 -0.082760 153 0 76
0.042242 0.321029 -0.357185 76 0 153
-0.064519 -0.599829 -0.402023 76 0 153
-0.177190 0.390233 -0.290915 0 255 0
0.178825 -0.554111 -0.318393 76 0 153
0.003527 0.156627 -0.410615 76 0 153
-0.085623 0.196283 0.221352 0 127 127
-0.225764 0.284567 -0.232903 76 0 153
0.029668 0.503501 0.324755 0 255 0
0.017351 0.527589 0.175184 0 255 0
0.159419 0.321029 -0.029893 76 0 153
-0.089089 0.192060 0.959338 0 127 127
0.062466 0.582611 -0.336272 0 255 0
-0.096318 0.182217 0.980066 0 127 127
-0.227913 0.103358 -0.145567 76 0 153
-0.005319 -0.723624 -0.213722 153 0 76
-0.066098 -0.676494 -0.068062 76 0 153
0.019522 0.525807 0.131445 0 255 0
0.035852 -0.651860 -0.036194 153 0 76
-0.229931 0.091298 -0.166047 76 0 153
0.007042 0.232721 0.772111 0 127 127
0.059521 0.035581 0.444824 0 127 127
-0.064678 0.033581 0.266168 0 127 127
-0.231291 0.251639 -0.187111 76 0 153
0.160541 0.132281 -0.026298 76 0 153
0.001241 0.015548 0.005332 0 127 127
0.049594 -0.011981 0.037275 76 0 153
-0.227751 -0.577926 -0.223056 76 0 153
-0.079164 0.582611 -0.238529 0 255 0
0.133522 0.495434 -0.002842 0 255 0
-0.023258 -0.013258 -0.409420 76 0 153
-0.167953 -0.295972 -0.026075 76 0 153
-0.090095 0.058005 0.597696 0 127 127
-0.086850 -0.082333 0.028278 76 0 153
-0.181649 0.562117 -0.042764 0 255 0
-0.188999 0.356732 -0.051720 0 255 0
-0.015228 0.486872 -0.072426 0 255 0
0.047269 0.028301 0.976144 0 127 127
0.107977 0.460256 -0.378779 0 255 0
-0.249457 -0.678212 -0.195449 153 0 76
0.083270 0.058944 0.580113 0 127 127
-0.078651 0.045048 0.259985 0 127 127
0.029545 0.321029 -0.161503 76 0 153
0.133451 0.582611 -0.339206 0 255 0
0.032891 -0.723624 0.046701 153 0 76
-0.058161 -0.211129 -0.403952 76 0 153
0.170082 0.371886 -0.279778 0 255 0
0.165130 -0.256380 -0.031890 76 0 153
-0.186187 0.321029 -0.138094 76 0 153
-0.085189 0.582611 -0.146023 0 255 0
-0.082473 0.476958 -0.290194 0 255 0
0.033151 0.009819 0.804127 76 153 0
0.089247 -0.441877 0.023895 76 0 153
0.008881 0.582364 -0.409090 0 255 0
0.094845 -0.007206 -0.387873 76 0 153
-0.175163 -0.723624 -0.295093 153 0 76
0.097398 0.384202 -0.016153 0 255 0
-0.083472 0.083262 0.029302 76 0 153
-0.224756 0.076398 -0.130748 76 0 153
0.094488 -0.651860 -0.407190 153 0 76
-0.221824 0.228824 -0.121081 76 0 153
-0.159354 0.050310 -0.017809 76 0 153
0.098368 0.086266 0.958015 0 127 127
0.144389 -0.651941 0.011180 153 0 76
-0.106542 -0.676494 -0.076841 76 0 153
-0.197609 -0.678981 -0.032426 153 0 76
0.127973 0.321029 -0.009635 76 0 153
-0.192845 -0.292460 -0.310564 76 0 153
0.164032 -0.626746 -0.336419 76 0 153
-0.138028 -0.241034 -0.366663 76 0 153
0.186928 -0.651860 -0.132096 153 0 76
0.071233 -0.710966 -0.417429 153 0 76
0.078201 0.052767 0.224015 0 127 127
0.136063 -0.651860 -0.251348 153 0 76
0.066759 0.041521 0.169945 0 127 127
-0.203066 -0.723624 -0.113044 153 0 76
0.218729 -0.109089 -0.135913 76 0 153
-0.156670 -0.080908 -0.015606 76 0 153
0.185082 -0.723624 -0.087780 153 0 76
0.005693 0.090159 0.950586 76 153 0
0.190181 0.397335 -0.065368 0 255 0
-0.111982 0.112398 0.078495 0 127 127
-0.231404 0.531326 -0.186538 0 255 0
-0.094958 0.184763 0.393924 0 127 127
0.093228 0.173790 0.450134 0 127 127
-0.062418 0.068275 0.801578 76 153 0
0.119281 0.470793 -0.250311 0 255 0
-0.081285 -0.181720 -0.396937 76 0 153
-0.228835 -0.687109 -0.283580 153 0 76
-0.247758 -0.691659 -0.212705 153 0 76
0.194220 -0.273155 -0.072925 76 0 153
0.139947 -0.286469 -0.008115 76 0 153
0.216601 0.195027 -0.128899 76 0 153
0.075707 -0.651860 -0.266834 153 0 76
0.146897 0.582611 -0.097512 0 255 0
-0.111930 -0.359387 0.015829 76 0 153
-0.068147 0.036428 0.064799 0 127 127
-0.116886 0.582611 -0.146452 0 255 0
0.038127 0.460316 -0.327907 0 255 0
0.190593 0.454151 -0.303427 0 255 0
0.194379 0.149536 -0.073222 76 0 153
0.009623 0.321029 -0.089110 76 0 153
-0.009379 0.050304 -0.015326 0 127 127
0.036905 0.225812 0.518249 0 127 127
0.012416 0.472316 0.291791 0 255 0
0.194298 0.360898 -0.139882 0 255 0
0.087925 0.065129 0.480831 0 127 127
-0.036620 0.508784 0.409555 0 255 0
0.018621 -0.466129 -0.409128 76 0 153
0.024407 0.519897 0.246020 0 255 0
-0.212626 0.219698 -0.093152 76 0 153
0.103649 0.321029 -0.116555 76 0 153
0.212274 -0.613311 -0.114633 76 0 153
0.149201 -0.723624 -0.137725 153 0 76
0.221436 0.372635 -0.215284 0 255 0
0.218007 -0.664922 -0.133533 76 0 153
-0.049085 -0.723624 -0.186485 153 0 76
0.201360 0.038604 -0.280688 76 0 153
-0.065366 -0.597884 0.034795 76 0 153
-0.000685 -0.676494 0.020356 76 0 153
-0.135694 0.216667 0.001608 76 0 153
0.026065 0.105469 0.982197 0 127 127
-0.040510 0.021817 0.534273 0 127 127
-0.062001 0.032116 0.160142 0 127 127
-0.022371 0.009819 0.894724 76 153 0
-0.216567 0.266085 -0.103752 76 0 153
-0.063826 -0.723624 -0.159319 153 0 76
0.127590 0.582611 -0.005983 0 255 0
-0.112936 0.122091 0.905547 0 127 127
-0.194240 0.390341 -0.220074 0 255 0
-0.070090 -0.676494 -0.035748 76 0 153
0.221107 -0.374907 -0.153566 76 0 153
-0.078468 -0.676494 -0.278570 76 0 153
-0.040178 -0.689081 0.059770 153 0 76
-0.014239 0.016080 0.771033 0 127 127
-0.199189 -0.178177 -0.068013 76 0 153
0.061855 0.211342 0.751353 0 127 127
-0.089738 0.089116 0.858415 76 153 0
0.104395 -0.200602 -0.382769 76 0 153
-0.148606 0.370744 -0.232947 0 255 0
0.096505 0.081181 0.771591 0 127 127
-0.126152 -0.723624 -0.274954 153 0 76
0.077719 0.452762 0.028744 0 255 0
-0.120520 -0.723624 -0.207889 153 0 76
-0.089823 0.582611 -0.124089 0 255 0
-0.122100 0.394595 -0.285514 0 255 0
-0.165677 -0.610342 -0.343669 76 0 153
0.005620 -0.723624 -0.168228 153 0 76
-0.051827 -0.651860 -0.412897 76 0 153
-0.089444 -0.357784 0.027491 76 0 153
0.035775 -0.676494 -0.291376 76 0 153
-0.113747 0.321029 -0.279207 76 0 153
0.086359 0.186133 0.654966 0 127 127
0.089398 -0.630939 -0.390785 76 0 153
0.022599 0.230152 0.259432 0 127 127
0.066324 0.582611 -0.094387 0 255 0
-0.030793 0.007218 0.041706 76 0 153
0.209990 -0.119899 -0.107107 76 0 153
0.222787 -0.047627 -0.196346 76 0 153
-0.122351 0.582611 -0.084532 0 255 0
0.133075 -0.701024 -0.388865 153 0 76
0.223395 0.572146 -0.176804 0 255 0
-0.202575 -0.598095 -0.074348 76 0 153
0.024018 -0.434054 0.041626 76 0 153
0.000576 -0.663114 -0.410906 76 0 153
0.136488 -0.723624 -0.116564 153 0 76
0.094025 0.172298 0.414271 0 127 127
-0.154906 -0.276854 -0.352812 76 0 153
0.145680 -0.001808 -0.012820 76 0 153
-0.052855 0.103896 0.906232 76 153 0
-0.124736 -0.723624 0.003468 153 0 76
-0.039401 0.454586 -0.334672 0 255 0
0.017876 0.231584 0.294876 0 127 127
-0.188568 -0.573714 -0.051195 76 0 153
-0.028240 0.230744 0.547581 0 127 127
0.120183 0.561279 -0.373890 0 255 0
-0.139322 0.089911 -0.365601 76 0 153
0.129837 0.321029 -0.092799 76 0 153
-0.201059 0.193864 -0.071512 76 0 153
0.051022 0.024769 0.931418 0 127 127
-0.058050 0.218836 0.394251 0 127 127
0.112674 0.582611 -0.217322 0 255 0
-0.054121 0.469133 0.038206 0 255 0
0.001134 0.524991 -0.166678 0 255 0
0.094840 0.170774 0.955550 0 127 127
-0.034720 0.058248 0.784275 76 153 0
0.041846 -0.477002 -0.406597 76 0 153
0.191111 0.321029 -0.235431 76 0 153
-0.200357 0.560566 -0.297088 0 255 0
0.039142 0.224883 0.457063 0 127 127
-0.104638 -0.106896 -0.386698 76 0 153
-0.137739 0.566622 -0.366574 0 255 0
-0.166732 0.496662 -0.342061 0 255 0
-0.013216 0.015979 0.094634 0 127 127
0.061517 0.037219 0.786426 0 127 127
0.220714 -0.723624 -0.221317 153 0 76
0.117765 -0.676494 -0.152550 76 0 153
-0.182206 -0.267381 -0.043443 76 0 153
-0.192782 -0.091112 -0.056330 76 0 153
-0.011801 0.192131 0.043577 76 0 153
-0.203052 0.459248 -0.293873 0 255 0
-0.133287 0.321029 -0.090115 76 0 153
-0.205052 0.004292 -0.287989 76 0 153
-0.167371 -0.126742 -0.341604 76 0 153
0.223576 -0.269494 -0.178636 76 0 153
0.157096 0.321029 -0.231403 76 0 153
0.202120 -0.639658 -0.279267 76 0 153
0.198115 0.360800 -0.170480 0 255 0
-0.112183 0.134392 0.780806 0 127 127
-0.114003 0.482357 -0.122172 0 255 0
-0.230270 -0.598423 -0.197481 76 0 153
0.213036 0.139894 -0.117145 76 0 153
-0.047616 0.499084 -0.006577 0 255 0
0.011757 -0.651860 -0.223779 153 0 76
-0.132464 0.473404 -0.136006 0 255 0
0.132491 0.582611 -0.285027 0 255 0
-0.077523 -0.022488 0.909796 76 153 0
0.222009 -0.656114 -0.204241 76 0 153
-0.223630 -0.560054 -0.127034 76 0 153
0.178037 0.321029 -0.256193 76 0 153
-0.002057 0.157703 0.044194 76 0 153
-0.089378 -0.651860 0.043606 153 0 76
0.114511 -0.666403 0.031817 153 0 76
0.207844 0.250417 -0.266941 76 0 153
0.067546 -0.723624 0.043522 153 0 76
-0.193259 -0.651860 -0.142479 153 0 76
0.033892 -0.029321 -0.407624 76 0 153
0.031072 -0.131209 -0.407902 76 0 153
0.138586 -0.362081 -0.006998 76 0 153
-0.226019 0.472969 -0.236870 0 255 0
0.224002 0.537223 -0.184009 0 255 0
-0.027165 0.017769 0.120066 0 127 127
0.026126 0.516680 0.427452 0 255 0
0.010902 0.542993 -0.048681 0 255 0
0.063849 0.039133 -0.015008 0 127 127
-0.053205 0.468927 -0.049535 0 255 0
0.044828 0.221843 0.685960 0 127 127
-0.087518 0.582611 -0.219444 0 255 0
0.194003 -0.651860 -0.325584 153 0 76
0.008994 0.532737 0.267805 0 255 0
-0.100103 0.450882 -0.057639 0 255 0
0.205289 -0.721364 -0.313423 153 0 76
0.065797 -0.021568 -0.399331 76 0 153
-0.077922 0.578285 -0.398025 0 255 0
-0.001292 0.103896 0.901105 76 153 0
-0.110969 0.561857 0.016344 0 255 0
0.096328 0.167990 0.354577 0 127 127
0.004252 0.252713 -0.410544 76 0 153
-0.075110 -0.676494 -0.094408 76 0 153
0.061694 0.211475 0.386726 0 127 127
0.216302 0.234066 -0.127914 76 0 153
-0.174516 -0.329305 -0.332898 76 0 153
-0.107079 0.494233 -0.221659 0 255 0
0.212723 -0.682675 -0.067457 153 0 76
0.038616 0.162930 -0.015326 0 127 127
0.036079 -0.153369 -0.407409 76 0 153
0.188848 -0.139539 -0.062874 76 0 153
-0.156835 0.456508 -0.196448 0 255 0
0.217627 0.235423 -0.234690 76 0 153
-0.024836 -0.316834 -0.409264 76 0 153
0.182203 -0.193336 -0.052693 76 0 153
0.078573 0.071795 -0.015326 0 127 127
0.094017 0.321029 -0.190291 76 0 153
0.047426 0.215124 -0.404904 76 0 153
0.004197 0.321029 -0.165294 76 0 153
0.092149 0.081305 -0.389315 76 0 153
0.167885 0.497437 -0.332622 0 255 0
-0.005383 0.099653 -0.411180 76 0 153
0.013611 -0.003948 -0.409622 76 0 153
0.003609 -0.595687 -0.410607 76 0 153
-0.202200 0.476537 -0.073645 0 255 0
0.002220 0.245480 0.043773 76 0 153
0.201909 -0.374863 -0.087309 76 0 153
-0.228014 0.039081 -0.220380 76 0 153
-0.122566 -0.676494 -0.255851 76 0 153
-0.049913 -0.651860 -0.107297 153 0 76
0.056186 -0.651860 0.019103 153 0 76
0.197412 0.226007 -0.078897 76 0 153
0.221429 0.394436 -0.156838 0 255 0
-0.219324 -0.593658 -0.254131 76 0 153
0.054893 -0.018230 0.912802 76 153 0
-0.164137 0.434287 -0.246106 0 255 0
0.078359 -0.676494 -0.362667 76 0 153
-0.217992 0.214241 -0.108449 76 0 153
0.071377 0.045311 0.620214 0 127 127
-0.224986 -0.723624 -0.192821 153 0 76
0.041613 0.238892 -0.406667 76 0 153
0.152154 0.368243 -0.308401 0 255 0
0.213719 -0.053074 -0.119398 76 0 153
0.148050 -0.472694 -0.014765 76 0 153
0.040031 0.504063 0.024294 0 255 0
-0.191962 -0.048884 -0.311640 76 0 153
0.103471 0.145741 0.578517 0 127 127
0.036198 -0.195012 -0.407397 76 0 153
-0.027160 -0.598253 -0.409035 76 0 153
0.072378 0.046132 0.489872 0 127 127
0.027652 0.048802 -0.015326 0 127 127
-0.226241 -0.358311 -0.135642 76 0 153
0.078613 0.195571 0.424671 0 127 127
-0.203147 0.249181 -0.075417 76 0 153
0.198919 0.057041 -0.081716 76 0 153
-0.077263 -0.348879 -0.398157 76 0 153
0.015842 0.231854 -0.002563 0 127 127
0.037608 -0.723624 -0.228498 153 0 76
-0.028890 -0.064734 -0.408865 76 0 153
0.197445 0.487506 -0.078959 0 255 0
0.080835 -0.723624 -0.050205 153 0 76
0.154245 -0.723624 -0.099612 153 0 76
-0.111576 0.140563 0.263890 0 127 127
-0.018196 0.016469 0.437467 0 127 127
-0.227461 -0.082911 -0.226000 76 0 153
-0.144058 -0.030873 -0.005256 76 0 153
-0.228955 -0.651860 -0.117336 153 0 76
0.007769 0.491219 0.482604 0 255 0
-0.082472 0.407355 0.029606 0 255 0
-0.157458 -0.220720 -0.350718 76 0 153
0.082864 0.058449 0.512644 0 127 127
-0.056104 -0.681361 -0.424322 153 0 76
0.184318 0.290561 -0.055271 76 0 153
-0.031232 -0.440097 0.041663 76 0 153
-0.042235 -0.559927 -0.407551 76 0 153
0.217093 0.519587 -0.239384 0 255 0
0.048292 -0.446956 -0.404641 76 0 153
-0.118538 -0.216183 -0.379269 76 0 153
0.029326 0.228111 0.959346 0 127 127
-0.225917 -0.255911 -0.134572 76 0 153
-0.231143 -0.504083 -0.178358 76 0 153
0.027880 0.582611 -0.232771 0 255 0
0.011444 -0.512069 -0.409835 76 0 153
0.045576 0.221444 0.961453 0 127 127
0.185524 0.402537 -0.312739 0 255 0
-0.020432 0.260943 -0.409698 76 0 153
-0.010655 -0.723624 -0.003774 153 0 76
-0.192586 -0.020629 -0.310880 76 0 153
-0.112138 0.494293 -0.162431 0 255 0
-0.164065 -0.723624 -0.064569 153 0 76
-0.158005 0.321029 -0.253117 76 0 153
-0.150890 -0.651860 -0.103845 153 0 76
-0.066674 0.321029 -0.006558 76 0 153
0.201103 0.582611 -0.216625 0 255 0
-0.037758 0.473872 0.028603 0 255 0
0.166261 0.238181 -0.033269 76 0 153
-0.185427 0.582611 -0.219407 0 255 0
0.240507 -0.683129 -0.157758 153 0 76
-0.195118 -0.625474 -0.060396 76 0 153
0.223721 -0.330620 -0.186861 76 0 153
-0.154533 0.096783 -0.353118 76 0 153
0.220283 -0.089679 -0.221768 76 0 153
0.032153 -0.504048 0.040825 76 0 153
0.223476 -0.474713 -0.177619 76 0 153
0.057795 0.178504 -0.401759 76 0 153
-0.199233 -0.079289 -0.068095 76 0 153
0.121976 0.397218 -0.294918 0 255 0
-0.157114 0.582611 -0.310883 0 255 0
0.103499 0.145454 0.830871 0 127 127
0.082427 0.582611 -0.171922 0 255 0
-0.081925 0.026111 0.901561 76 153 0
-0.056553 0.198149 0.037468 76 0 153
-0.033751 0.415683 -0.362836 0 255 0
-0.055343 0.321029 -0.294783 76 0 153
-0.231194 -0.554390 -0.178877 76 0 153
-0.070509 0.219590 0.033235 76 0 153
0.019421 -0.016579 0.781937 76 153 0
0.127471 -0.232739 -0.369095 76 0 153
0.017005 0.527872 0.281818 0 255 0
-0.150139 -0.298919 -0.010247 76 0 153
-0.122060 -0.526050 0.010415 76 0 153
0.099605 0.158497 0.470790 0 127 127
-0.093304 -0.236683 0.025785 76 0 153
0.085619 0.061805 0.098458 0 127 127
-0.184583 -0.253840 -0.320631 76 0 153
0.079564 0.061966 0.886965 76 153 0
-0.085749 0.005769 0.891615 76 153 0
-0.057173 0.046377 0.037280 76 0 153
-0.205039 -0.262710 -0.288013 76 0 153
0.033476 0.524924 -0.056401 0 255 0
-0.116058 0.375037 -0.346999 0 255 0
-0.100771 0.173887 0.690432 0 127 127
-0.088203 -0.676494 -0.211333 76 0 153
0.091875 -0.676494 -0.142375 76 0 153
-0.101334 0.076006 0.001068 0 127 127
0.006474 0.533502 0.195338 0 255 0
-0.090810 -0.723624 0.028521 153 0 76
-0.169646 -0.632986 -0.338832 76 0 153
0.070925 -0.651860 -0.085113 153 0 76
-0.157664 -0.723624 -0.295182 153 0 76
-0.033460 0.077537 0.982197 0 127 127
0.170094 0.052331 -0.037939 76 0 153
0.128035 0.151591 0.001661 76 0 153
0.151956 0.334978 -0.316506 0 255 0
0.061411 0.037092 -0.400662 76 0 153
-0.081413 0.047427 0.218136 0 127 127
-0.155232 0.083279 -0.014426 76 0 153
-0.043079 0.484820 -0.299947 0 255 0
-0.227511 -0.541082 -0.225491 76 0 153
0.094663 -0.074591 -0.387971 76 0 153
-0.228067 -0.064894 -0.147126 76 0 153
-0.044358 0.484470 -0.013464 0 255 0
0.099574 -0.723624 -0.211905 153 0 76
0.089300 0.398121 -0.288210 0 255 0
0.035360 0.103896 0.860019 76 153 0
-0.028068 0.230797 0.206693 0 127 127
0.213517 -0.074348 -0.248238 76 0 153
-0.026694 0.412134 -0.323834 0 255 0
0.040047 0.321029 -0.289313 76 0 153
0.031615 0.030679 -0.407848 76 0 153
-0.221600 -0.641335 -0.246628 76 0 153
0.083643 0.189442 0.222808 0 127 127
0.166600 -0.251456 -0.333290 76 0 153
-0.099702 0.175886 0.462920 0 127 127
0.118917 0.346929 -0.078354 0 255 0
0.177611 0.321029 -0.147260 76 0 153
0.171034 0.410145 -0.039084 0 255 0
-0.165295 -0.485841 -0.344134 76 0 153
0.104023 0.582611 -0.101200 0 255 0
0.213480 0.413420 -0.118609 0 255 0
0.150674 -0.723624 -0.060679 153 0 76
0.046699 -0.651860 -0.100208 153 0 76
0.209361 0.582611 -0.239656 0 255 0
0.164350 -0.455520 -0.336032 76 0 153
-0.166585 0.582028 -0.341520 0 255 0
-0.210709 -0.710071 -0.049480 153 0 76
-0.220619 -0.410781 -0.117110 76 0 153
-0.031134 -0.723624 -0.101224 153 0 76
-0.164998 0.133801 -0.344495 76 0 153
-0.138942 -0.086616 -0.001057 76 0 153
0.177351 0.393297 -0.117708 0 255 0
-0.186469 -0.651860 -0.108933 153 0 76
-0.165258 0.582611 -0.188267 0 255 0
0.037253 -0.705320 -0.426281 153 0 76
0.031190 0.321029 -0.038258 76 0 153
-0.027393 -0.723624 -0.163766 153 0 76
0.046845 0.220765 0.385689 0 127 127
0.220651 -0.352407 -0.148936 76 0 153
-0.084759 -0.410131 -0.395883 76 0 153
0.024067 0.122207 0.982197 0 127 127
-0.060287 0.217639 0.148504 0 127 127
-0.193974 -0.387534 -0.058256 76 0 153
-0.063800 -0.723624 -0.026449 153 0 76
0.119904 0.240515 -0.374479 76 0 153
-0.123536 -0.562021 0.009626 76 0 153
-0.164527 -0.679878 -0.369361 153 0 76
0.135516 -0.676494 -0.239175 76 0 153
-0.109732 0.150147 0.321392 0 127 127
-0.008320 0.064302 0.043920 76 0 153
0.194913 0.321029 -0.199428 76 0 153
-0.156690 -0.309953 -0.351348 76 0 153
0.095843 -0.406011 -0.387340 76 0 153
0.008362 0.532929 0.448419 0 255 0
-0.112562 0.118286 0.824442 0 127 127
-0.077030 0.205121 0.682904 0 127 127
-0.075750 -0.020220 0.841244 76 153 0
0.240173 -0.704974 -0.212603 153 0 76
-0.229084 0.581677 -0.160617 0 255 0
-0.021543 0.520764 -0.410657 0 255 0
-0.178463 0.291869 -0.038882 76 0 153
-0.205538 -0.419720 -0.287080 76 0 153
0.165773 0.435054 -0.157728 0 255 0
0.065411 0.040415 0.654342 0 127 127
0.015388 -0.651860 -0.310990 153 0 76
-0.030450 0.230074 0.863257 0 127 127
0.151052 -0.664347 -0.349743 76 0 153
0.035611 -0.024436 0.788299 76 153 0
0.085152 0.582611 -0.206830 0 255 0
-0.158531 -0.026496 -0.017134 76 0 153
0.150972 0.419811 -0.017163 0 255 0
-0.026505 0.321029 -0.269430 76 0 153
0.007530 0.321029 -0.239175 76 0 153
-0.000449 0.233458 0.509018 0 127 127
-0.074560 0.094159 0.914539 76 153 0
0.206138 -0.022209 -0.271748 76 0 153
0.220673 0.173640 -0.149166 76 0 153
-0.055052 0.220438 0.808315 0 127 127
-0.020214 -0.350471 -0.409719 76 0 153
-0.089694 0.036836 0.871910 76 153 0
0.189702 0.073767 -0.302499 76 0 153
-0.155632 0.325335 -0.322596 76 0 153
0.118923 -0.651860 -0.052834 153 0 76
0.091783 0.072346 0.737639 0 127 127
-0.008316 0.009819 0.915927 76 153 0
-0.057341 0.321029 -0.374741 76 0 153
-0.064518 -0.676494 -0.296122 76 0 153
0.026348 -0.535393 0.041396 76 0 153
0.221955 -0.723624 -0.175773 153 0 76
0.053609 0.142810 0.982197 0 127 127
-0.230835 0.371710 -0.193643 0 255 0
-0.094783 0.063750 0.828207 0 127 127
-0.227685 0.042944 -0.143248 76 0 153
0.221774 0.284907 -0.160339 76 0 153
0.092056 0.072857 0.818168 0 127 127
-0.105683 -0.289915 0.019169 76 0 153
0.103725 0.143164 0.743398 0 127 127
0.113676 0.099897 -0.377808 76 0 153
-0.145083 -0.276680 -0.006097 76 0 153
-0.081339 0.209550 -0.396920 76 0 153
0.050334 0.345453 -0.379886 0 255 0
-0.159982 -0.676494 -0.123981 76 0 153
0.197103 0.443879 -0.292454 0 255 0
-0.044374 0.161288 -0.407340 76 0 153
-0.105608 0.046536 0.019209 76 0 153
0.061372 -0.723624 -0.265909 153 0 76
0.109435 0.421931 -0.045465 0 255 0
-0.032654 0.484568 0.127104 0 255 0
0.107894 0.582611 -0.150415 0 255 0
-0.224466 -0.668552 -0.237182 76 0 153
-0.035553 0.490942 0.254172 0 255 0
-0.007423 0.468329 0.459345 0 255 0
0.213634 -0.676494 -0.213952 76 0 153
0.183195 0.193096 -0.313069 76 0 153
0.125079 0.582611 -0.124201 0 255 0
-0.023592 0.161170 0.042416 76 0 153
-0.002046 0.233616 0.147272 0 127 127
-0.165797 -0.676494 -0.041804 76 0 153
0.201181 0.302849 -0.085948 76 0 153
0.037865 0.487884 -0.003855 0 255 0
-0.059361 0.161545 0.036616 76 0 153
-0.154598 0.043073 -0.353065 76 0 153
0.207529 -0.114387 -0.267980 76 0 153
-0.020668 0.097533 0.780016 76 153 0
-0.140031 0.171491 -0.001951 76 0 153
0.075177 0.049081 0.424863 0 127 127
-0.228178 -0.506987 -0.148251 76 0 153
-0.223604 -0.078583 -0.126950 76 0 153
0.025238 -0.704309 0.060493 153 0 76
0.210218 0.532709 -0.261425 0 255 0
-0.061680 -0.723624 -0.133607 153 0 76
0.032454 0.198117 -0.015326 0 127 127
0.221419 -0.538017 -0.210239 76 0 153
0.134947 -0.651860 -0.133342 153 0 76
0.026811 -0.638574 -0.408322 153 0 76
0.180021 0.582611 -0.082892 0 255 0
-0.111134 0.145048 0.925974 0 127 127
-0.074793 0.246787 0.031935 76 0 153
0.081083 0.192560 0.885864 0 127 127
0.075452 0.199422 0.955852 0 127 127
-0.034221 0.019909 0.925483 0 127 127
-0.036626 0.228201 0.735204 0 127 127
-0.232419 -0.651860 -0.177226 153 0 76
-0.189398 -0.108236 -0.314764 76 0 153
-0.075954 0.291056 -0.398554 76 0 153
0.101208 0.350527 -0.095547 0 255 0
0.037674 0.400784 0.002262 0 255 0
0.077961 -0.019665 0.837624 76 153 0
0.013752 -0.676494 -0.263404 76 0 153
-0.019691 0.090663 0.042800 76 0 153
-0.067654 -0.723624 -0.095803 153 0 76
-0.014368 0.502215 -0.088678 0 255 0
-0.199256 0.582611 -0.278301 0 255 0
-0.133044 0.536922 0.003783 0 255 0
0.024280 0.019197 0.000513 0 127 127
0.103200 0.102195 -0.001013 0 127 127
0.036952 0.502237 0.052593 0 255 0
0.220212 -0.585194 -0.144477 76 0 153
-0.229217 -0.258861 -0.208173 76 0 153
0.096961 0.082034 0.081608 0 127 127
-0.148010 -0.651860 -0.233793 153 0 76
0.180857 0.227604 -0.051054 76 0 153
-0.058068 0.030014 0.184454 0 127 127
-0.227756 -0.320388 -0.223003 76 0 153
0.027937 0.490872 0.104731 0 255 0
-0.032861 0.484955 0.283184 0 255 0
-0.029099 0.018355 0.201090 0 127 127
-0.072945 -0.274360 0.032496 76 0 153
-0.081767 0.200981 0.756602 0 127 127
0.025070 0.582611 -0.050640 0 255 0
-0.228920 0.226817 -0.155790 76 0 153
-0.052805 0.093144 0.038605 76 0 153
0.038444 0.321029 -0.340588 76 0 153
0.081607 0.436554 -0.036169 0 255 0
0.072410 -0.651860 -0.368276 153 0 76
0.052599 -0.571433 0.036364 76 0 153
0.170168 -0.014832 -0.328942 76 0 153
-0.026491 0.103896 0.925000 76 153 0
-0.217838 -0.723624 -0.155452 153 0 76
-0.006665 0.009819 0.790577 76 153 0
0.051297 -0.723624 -0.051241 153 0 76
0.178299 0.582611 -0.258178 0 255 0
-0.141503 0.012356 -0.363811 76 0 153
0.033842 0.022098 0.433157 0 127 127
0.090739 0.501966 -0.166558 0 255 0
-0.018680 0.471960 0.001975 0 255 0
-0.204320 -0.211164 -0.077612 76 0 153
-0.227304 -0.144917 -0.227597 76 0 153
0.012417 -0.554411 -0.409739 76 0 153
0.099076 -0.671086 -0.407038 153 0 76
-0.083322 -0.651860 -0.363303 153 0 76
-0.208875 0.527034 -0.086133 0 255 0
-0.007079 0.233465 0.407152 0 127 127
0.207543 0.507074 -0.270496 0 255 0
-0.199331 -0.701972 -0.332448 153 0 76
0.168974 0.431657 -0.196290 0 255 0
-0.065273 -0.066228 0.034823 76 0 153
-0.006797 -0.723624 -0.391464 153 0 76
-0.056971 0.219412 0.446443 0 127 127
0.019419 0.103896 0.872759 76 153 0
-0.172242 -0.696891 -0.363030 153 0 76
0.222316 -0.655842 -0.165841 76 0 153
0.170995 0.106847 -0.327935 76 0 153
0.196192 -0.667851 -0.290356 76 0 153
-0.128942 -0.569446 -0.373707 76 0 153
-0.229120 -0.647951 -0.157820 76 0 153
-0.227886 -0.437953 -0.221678 76 0 153
0.171268 -0.518364 -0.327602 76 0 153
0.116730 0.085155 0.009205 76 0 153
0.101310 -0.709657 0.038873 153 0 76
-0.096247 -0.710528 0.045173 153 0 76
-0.179613 -0.068411 -0.040284 76 0 153
-0.063129 0.346743 -0.031440 0 255 0
-0.228267 -0.188193 -0.217819 76 0 153
0.151717 -0.146182 -0.017774 76 0 153
0.039261 0.224819 0.144295 0 127 127
-0.171636 -0.676494 -0.281882 76 0 153
0.211790 0.171460 -0.113040 76 0 153
-0.090071 0.057976 0.687651 0 127 127
0.084451 -0.676494 -0.098085 76 0 153
0.188089 0.321029 -0.177271 76 0 153
0.220634 -0.150691 -0.148770 76 0 153
0.070259 0.204445 0.455288 0 127 127
-0.002742 -0.554319 0.044261 76 0 153
0.047232 0.516169 -0.148031 0 255 0
-0.203232 -0.641386 -0.291395 76 0 153
0.156320 0.039025 -0.345419 76 0 153
-0.086521 0.053650 0.637673 0 127 127
-0.097419 0.180157 0.930618 0 127 127
0.049752 -0.261165 -0.404198 76 0 153
0.100439 -0.651860 -0.322860 153 0 76
0.113664 -0.676494 -0.010839 76 0 153
-0.004431 0.015114 0.656054 0 127 127
0.119925 -0.204035 -0.374468 76 0 153
-0.181682 0.359288 -0.217079 0 255 0
-0.175805 0.372976 -0.247299 0 255 0
-0.174075 -0.396645 -0.333436 76 0 153
-0.089527 0.004711 0.856274 76 153 0
0.079176 0.194885 0.061306 0 127 127
-0.205354 0.356544 -0.161929 0 255 0
-0.030725 0.521599 0.256327 0 255 0
-0.083799 0.198505 0.696342 0 127 127
0.074357 -0.462081 -0.396735 76 0 153
0.011983 -0.651860 -0.121201 153 0 76
-0.210027 -0.343749 -0.088289 76 0 153
0.029346 0.321029 -0.074116 76 0 153
0.040333 0.024593 0.847475 0 127 127
-0.054008 0.511842 -0.240254 0 255 0
0.019250 0.477215 0.439065 0 255 0
-0.155270 0.569175 -0.014458 0 255 0
-0.017426 0.470934 0.333903 0 255 0
-0.203136 -0.481460 -0.075398 76 0 153
-0.010089 0.233168 0.387658 0 127 127
-0.003502 0.582611 -0.113666 0 255 0
-0.228022 0.305364 -0.146672 76 0 153
0.184080 -0.325920 -0.311990 76 0 153
-0.000892 0.321029 -0.120226 76 0 153
0.082286 0.033342 0.870016 76 153 0
-0.202682 -0.723624 -0.168871 153 0 76
-0.145634 -0.651860 -0.279334 153 0 76
-0.135553 -0.676494 -0.174033 76 0 153
-0.089055 0.056738 0.438900 0 127 127
-0.066127 -0.676494 -0.177565 76 0 153
-0.191276 -0.360371 -0.054496 76 0 153
-0.105938 -0.651860 -0.211269 153 0 76
0.189906 -0.472833 -0.064853 76 0 153
-0.043453 0.255142 0.040459 76 0 153
0.011998 0.216938 0.042810 76 0 153
0.057122 -0.676494 -0.108769 76 0 153
-0.059412 0.497242 0.036601 0 255 0
-0.009789 0.103896 0.793513 76 153 0
-0.090977 -0.723624 -0.370854 153 0 76
0.103812 0.120695 0.982197 0 127 127
-0.057182 -0.651860 -0.264929 153 0 76
-0.206857 0.376236 -0.082359 0 255 0
-0.126300 -0.014691 0.008149 76 0 153
-0.033085 0.485375 0.462998 0 255 0
-0.014993 0.371975 0.015326 0 255 0
-0.017872 0.116207 0.042979 76 0 153
-0.122173 0.408311 -0.324235 0 255 0
0.169071 0.395988 -0.100316 0 255 0
0.184216 0.001864 -0.055147 76 0 153
0.221231 -0.708784 -0.083374 153 0 76
0.135030 -0.676494 -0.339473 76 0 153
0.141822 0.349389 -0.182964 0 255 0
0.207118 -0.651860 -0.160564 153 0 76
0.063939 -0.303374 0.032924 76 0 153
-0.229900 -0.663072 -0.201229 153 0 76
-0.089131 -0.210272 -0.394557 76 0 153
0.094359 0.077165 0.516672 0 127 127
0.086109 0.183673 0.025572 76 0 153
-0.027097 0.463200 -0.411238 0 255 0
0.233525 -0.651860 -0.216812 153 0 76
-0.117991 -0.100979 -0.379561 76 0 153
-0.206845 -0.398992 -0.284636 76 0 153
0.096915 -0.723624 -0.401838 153 0 76
-0.081945 0.200764 0.498324 0 127 127
0.126264 0.474613 -0.368138 0 255 0
-0.138185 0.294445 -0.366535 76 0 153
-0.172025 0.321029 -0.151511 76 0 153
0.010965 -0.676494 -0.393161 76 0 153
0.085620 0.350768 -0.081918 0 255 0
0.009400 0.009819 0.897311 76 153 0
0.218509 -0.232703 -0.135189 76 0 153
-0.228419 0.388325 -0.223808 0 255 0
-0.205773 -0.148161 -0.080330 76 0 153
0.221565 -0.320127 -0.208749 76 0 153
-0.043718 -0.450754 0.040433 76 0 153
0.064675 0.209029 0.293638 0 127 127
0.219402 -0.462242 -0.228837 76 0 153
-0.131879 -0.164524 -0.371710 76 0 153
0.077219 -0.642004 0.028895 76 0 153
-0.074414 0.207269 0.563401 0 127 127
0.213081 0.338851 -0.117296 0 255 0
0.195261 -0.202499 -0.074871 76 0 153
0.162718 -0.676494 -0.247300 76 0 153
-0.219236 -0.537926 -0.254420 76 0 153
-0.217058 -0.676494 -0.208656 76 0 153
0.197438 0.164772 -0.288025 76 0 153
0.066172 0.041039 0.867731 0 127 127
0.204615 0.198031 -0.092371 76 0 153
0.176058 -0.423654 -0.321765 76 0 153
-0.121655 -0.723624 -0.092223 153 0 76
0.188531 -0.384003 -0.062281 76 0 153
0.187419 0.582611 -0.144359 0 255 0
0.166982 -0.381415 -0.034146 76 0 153
0.113881 0.398555 0.010728 0 255 0
-0.015901 0.104883 -0.015326 0 127 127
0.029727 0.043385 0.944722 76 153 0
0.028479 0.103896 0.898104 76 153 0
-0.198241 -0.517040 -0.066240 76 0 153
0.155959 -0.517787 -0.345716 76 0 153
0.092539 0.175079 0.003158 0 127 127
0.219012 -0.040622 -0.136846 76 0 153
-0.041900 0.501015 -0.273332 0 255 0
0.095942 -0.651860 -0.031095 153 0 76
0.198195 -0.676494 -0.236821 76 0 153
0.125992 0.439491 -0.077206 0 255 0
0.038462 0.418510 -0.007830 0 255 0
-0.049904 0.223190 0.127405 0 127 127
0.150728 -0.710003 0.007482 153 0 76
-0.111993 0.112510 0.628537 0 127 127
0.106412 0.217972 -0.381691 76 0 153
-0.102486 0.418694 -0.351553 0 255 0
0.062489 0.038017 0.283273 0 127 127
0.068189 -0.506483 0.031635 76 0 153
-0.025530 0.017273 0.583111 0 127 127
0.120777 0.421663 0.007041 0 255 0
-0.173083 0.076752 -0.334644 76 0 153
0.014453 0.016849 0.748547 0 127 127
0.014975 0.582611 -0.110407 0 255 0
0.017869 0.159351 0.982197 0 127 127
-0.080258 -0.651860 -0.053276 153 0 76
-0.053699 0.058000 0.935453 76 153 0
0.110661 0.321029 -0.294862 76 0 153
0.026346 0.516269 0.390328 0 255 0
0.022533 -0.675465 -0.427731 153 0 76
0.176452 -0.229443 -0.321285 76 0 153
0.020747 0.478741 0.258181 0 255 0
0.053512 0.321029 -0.092126 76 0 153
0.222180 0.252890 -0.202509 76 0 153
0.209960 -0.463306 -0.259965 76 0 153
-0.207163 -0.455328 -0.284040 76 0 153
-0.089896 0.017267 0.869861 76 153 0
-0.153148 -0.033628 -0.354255 76 0 153
-0.230472 0.019910 -0.195428 76 0 153
0.152804 0.582611 -0.041190 0 255 0
-0.047235 0.124802 0.040087 76 0 153
0.221060 0.022576 -0.213877 76 0 153
0.123745 0.321029 -0.365676 76 0 153
-0.111529 0.339541 -0.000633 0 255 0
-0.230670 0.562686 -0.173558 0 255 0
0.114798 0.234090 0.010238 76 0 153
0.008776 0.348019 -0.030015 0 255 0
0.173468 -0.651860 -0.263682 153 0 76
0.059620 -0.038067 0.034234 76 0 153
-0.230466 -0.723624 -0.122752 153 0 76
0.029852 0.447323 -0.410641 0 255 0
0.200694 0.259424 -0.085036 76 0 153
0.220434 0.284635 -0.220238 76 0 153
-0.147833 0.428374 -0.283359 0 255 0
0.129693 0.342592 -0.045723 0 255 0
-0.074828 -0.676494 -0.344681 76 0 153
-0.097749 0.179540 0.360828 0 127 127
0.183504 -0.002096 -0.312692 76 0 153
-0.078391 0.044835 0.128416 0 127 127
-0.173560 0.552140 -0.032909 0 255 0
-0.229093 -0.567626 -0.209423 76 0 153
-0.186624 -0.398280 -0.048827 76 0 153
0.104002 0.140350 0.312610 0 127 127
-0.230702 0.561781 -0.194014 0 255 0
0.223098 -0.479343 -0.193184 76 0 153
0.024036 0.229716 0.111849 0 127 127
-0.012157 0.306341 0.043542 76 0 153
-0.101672 0.491100 -0.244955 0 255 0
-0.134236 -0.589938 -0.369775 76 0 153
0.028080 0.093153 0.945312 76 153 0
-0.105474 -0.328213 0.019280 76 0 153
-0.226733 -0.640794 -0.229706 76 0 153
-0.172624 0.117536 -0.031767 76 0 153
-0.221066 0.479788 -0.251679 0 255 0
-0.106190 0.161826 0.026089 0 127 127
-0.168829 -0.154626 -0.027143 76 0 153
-0.123935 0.484348 -0.153610 0 255 0
-0.096730 0.048647 -0.390925 76 0 153
-0.075550 -0.723624 -0.339404 153 0 76
0.220134 -0.508866 -0.223285 76 0 153
0.174493 0.472939 -0.325191 0 255 0
0.129667 -0.082224 0.000322 76 0 153
0.203200 -0.676494 -0.157589 76 0 153
-0.201869 -0.211659 -0.293945 76 0 153
-0.096700 0.127276 -0.390941 76 0 153
-0.176171 0.566902 -0.330831 0 255 0
-0.230855 -0.329063 -0.191540 76 0 153
-0.024497 0.231749 0.715306 0 127 127
-0.222752 -0.231007 -0.242832 76 0 153
-0.044291 -0.267767 0.040377 76 0 153
0.204994 -0.316461 -0.093081 76 0 153
-0.144541 0.582611 -0.187562 0 255 0
0.174372 -0.599082 -0.043151 76 0 153
-0.125165 -0.651860 -0.004673 76 0 153
-0.088293 -0.676494 -0.317058 76 0 153
-0.075972 0.061716 0.912699 76 153 0
0.104298 0.495542 -0.182198 0 255 0
-0.174293 0.383249 -0.033801 0 255 0
-0.199587 0.179747 -0.298215 76 0 153
-0.006837 0.233489 0.100258 0 127 127
-0.169702 0.369771 -0.071180 0 255 0
-0.119711 0.255583 -0.378642 76 0 153
0.131391 0.582611 -0.246108 0 255 0
-0.054287 -0.250759 0.038155 76 0 153
0.001600 0.529737 0.482604 0 255 0
-0.225826 0.506000 -0.235918 0 255 0
0.070706 0.374872 0.000925 0 255 0
-0.035909 0.228418 0.532714 0 127 127
0.075485 0.050624 0.981693 0 127 127
0.010122 0.343337 0.002075 0 255 0
0.050416 0.186921 -0.015326 0 127 127
-0.106185 0.086998 0.844118 0 127 127
-0.214611 -0.676494 -0.181437 76 0 153
-0.014796 0.090473 0.950438 76 153 0
-0.184160 -0.279403 -0.321147 76 0 153
-0.082045 0.321029 -0.164361 76 0 153
0.132686 0.290832 -0.002156 76 0 153
-0.091556 -0.651860 -0.408403 153 0 76
-0.173064 -0.723624 -0.024553 153 0 76
0.032159 0.523063 -0.174878 0 255 0
0.082725 -0.015454 0.865556 76 153 0
0.220589 0.321029 -0.163773 76 0 153
-0.131890 -0.676494 -0.121776 76 0 153
-0.183823 0.321029 -0.170749 76 0 153
-0.002051 -0.008105 0.951349 76 153 0
-0.231202 -0.575733 -0.178956 76 0 153
0.160797 0.321029 -0.196426 76 0 153
-0.207140 0.106106 -0.284084 76 0 153
0.044125 0.026620 0.377258 0 127 127
0.093774 -0.437839 -0.388446 76 0 153
-0.041898 0.226601 0.570186 0 127 127
-0.046575 -0.004684 0.927802 76 153 0
0.062631 -0.676494 -0.076814 76 0 153
-0.112624 0.118917 0.595278 0 127 127
-0.219499 0.024568 -0.253554 76 0 153
-0.111130 0.103748 0.230784 0 127 127
0.028219 0.321029 -0.101163 76 0 153
-0.146722 -0.014728 -0.359528 76 0 153
-0.063174 0.216097 0.323170 0 127 127
-0.112394 0.132252 0.447869 0 127 127
0.027697 0.009819 0.874540 76 153 0
0.145108 -0.348324 -0.354620 76 0 153
-0.212469 0.303920 -0.274114 76 0 153
-0.083521 0.321029 -0.334166 76 0 153
-0.231763 -0.662095 -0.088869 153 0 76
0.164849 0.345749 -0.163634 0 255 0
0.113368 -0.723624 -0.301029 153 0 76
-0.109968 -0.385690 -0.383849 76 0 153
0.209707 -0.043003 -0.106171 76 0 153
0.064717 0.208994 0.121448 0 127 127
-0.228146 -0.346992 -0.219041 76 0 153
0.082553 0.190770 0.509449 0 127 127
0.104578 0.134505 0.881481 0 127 127
-0.067996 0.424020 -0.348958 0 255 0
-0.003341 0.233743 0.741608 0 127 127
-0.023317 -0.008275 0.791719 76 153 0
-0.171822 -0.651860 -0.098110 153 0 76
-0.039251 0.582611 -0.159869 0 255 0
-0.036227 0.510080 0.189468 0 255 0
0.202208 -0.242924 -0.087868 76 0 153
0.054622 0.393278 0.035750 0 255 0
0.070295 0.204416 0.486557 0 127 127
0.031935 -0.651860 -0.094144 153 0 76
-0.203217 0.225622 -0.291423 76 0 153
0.084086 0.109406 -0.393624 76 0 153
0.095728 0.321029 -0.140110 76 0 153
0.120854 -0.579306 0.007001 76 0 153
-0.038507 0.021209 0.612986 0 127 127
0.019097 -0.645169 0.042111 76 0 153
0.097017 0.538490 -0.385814 0 255 0
0.026282 0.486855 0.418766 0 255 0
0.059000 0.103896 0.827850 76 153 0
0.050448 0.030000 0.150468 0 127 127
0.104394 0.112464 0.376792 0 127 127
0.068054 0.582611 -0.363904 0 255 0
0.223236 -0.427090 -0.175187 76 0 153
0.220231 -0.620370 -0.222300 76 0 153
-0.229198 -0.382515 -0.208358 76 0 153
-0.053327 0.221360 0.716527 0 127 127
0.092396 0.175346 0.606393 0 127 127
-0.062462 -0.723624 -0.243838 153 0 76
-0.184428 -0.491593 -0.320820 76 0 153
0.147475 -0.175765 -0.352678 76 0 153
0.140128 0.546302 -0.008264 0 255 0
-0.008259 0.233349 0.557955 0 127 127
0.025562 0.019586 0.923829 0 127 127
0.192717 -0.723624 -0.167542 153 0 76
-0.227899 -0.402352 -0.145417 76 0 153
-0.156163 0.321029 -0.017597 76 0 153
0.128729 0.476410 -0.198115 0 255 0
-0.020612 0.530607 0.086595 0 255 0
0.177829 -0.719295 -0.349394 153 0 76
-0.072857 0.373814 -0.369416 0 255 0
0.173545 -0.036344 -0.324827 76 0 153
0.099564 -0.676494 -0.382668 76 0 153
0.064807 0.087103 0.812707 76 153 0
-0.091553 0.148843 -0.015326 0 127 127
0.206247 0.298631 -0.271545 76 0 153
-0.163312 0.413739 -0.272227 0 255 0
0.013792 0.530193 0.397111 0 255 0
0.050914 0.493114 -0.085338 0 255 0
-0.230021 0.174711 -0.166969 76 0 153
-0.039653 0.227282 0.798807 0 127 127
0.029115 0.009819 0.825501 76 153 0
-0.034139 0.469788 -0.032091 0 255 0
-0.219898 -0.238755 -0.114734 76 0 153
0.126688 -0.723624 0.019082 153 0 76
0.170707 0.564495 -0.038686 0 255 0
0.150172 -0.441978 -0.016506 76 0 153
-0.044652 -0.116850 0.040341 76 0 153
0.073431 0.201842 0.563601 0 127 127
0.012792 0.276592 -0.409702 76 0 153
0.011357 0.569870 0.042873 0 255 0
0.050631 -0.661755 -0.403932 76 0 153
0.063734 0.039039 0.099668 0 127 127
0.057937 0.581867 0.034223 0 255 0
-0.215827 -0.668518 -0.265658 76 0 153
0.219896 -0.236415 -0.225697 76 0 153
-0.002090 0.321029 -0.296928 76 0 153
0.029611 0.228025 0.814096 0 127 127
-0.216835 -0.475550 -0.262335 76 0 153
0.209504 0.378058 -0.105505 0 255 0
0.222922 -0.246897 -0.194978 76 0 153
-0.108064 0.155647 0.352970 0 127 127
-0.069122 0.211612 0.379583 0 127 127
0.145310 -0.081900 -0.354455 76 0 153
-0.053703 0.221159 0.899196 0 127 127
-0.228646 -0.407981 -0.213963 76 0 153
0.079773 0.054682 0.715995 0 127 127
-0.169997 -0.673173 -0.338405 76 0 153
0.053849 0.321029 -0.245501 76 0 153
0.096271 -0.579387 0.020140 76 0 153
