ply
format ascii 1.0
element vertex 1277
property float x
property float y
property float z
property uchar red
property uchar green
property uchar blue
end_header
0.018873 0.141224 0.474864 76 153 0
0.038806 0.286194 0.039324 0 255 0
0.098568 0.403029 0.001529 0 255 0
-0.097484 -0.896429 0.023735 153 0 76
0.067527 -0.790828 -0.138179 76 0 153
-0.136913 -0.894414 -0.043096 153 0 76
0.061809 0.117080 0.073731 0 127 127
0.041776 0.554716 -0.023406 0 255 0
-0.009136 0.513364 0.031017 0 255 0
-0.045033 0.049229 0.165695 0 127 127
0.018989 0.401403 -0.274982 0 255 0
-0.060414 0.109746 -0.152446 76 0 153
0.038632 -0.760399 -0.061038 76 0 153
-0.088348 0.061794 -0.015801 0 127 127
-0.026899 0.575384 0.214813 0 255 0
0.154701 -0.922982 -0.218277 153 0 76
0.122019 -0.890823 -0.050613 153 0 76
-0.027623 -0.011767 -0.079515 0 127 127
-0.088483 0.098999 0.129654 0 127 127
0.084077 0.142913 0.416988 76 153 0
0.027267 0.109746 -0.099722 0 127 127
-0.092696 0.028812 -0.104650 76 0 153
0.039817 0.180679 0.199413 0 127 127
-0.130587 -0.034364 -0.169666 76 0 153
0.038728 -0.173903 -0.102594 76 0 153
0.018213 0.215870 0.268959 0 127 127
-0.051694 0.416843 0.027681 0 255 0
-0.124050 0.032578 -0.058024 76 0 153
-0.060846 -0.173903 -0.043893 76 0 153
-0.114682 0.079671 -0.191649 76 0 153
0.072720 0.256762 0.552833 76 153 0
0.087471 0.172757 0.319385 0 127 127
0.149476 0.518650 -0.107967 0 255 0
-0.030378 -0.052367 -0.111535 0 127 127
-0.026899 0.519082 0.130049 0 255 0
0.002291 0.159852 0.408136 76 153 0
-0.031939 -0.357248 -0.216414 76 0 153
0.038092 0.150022 -0.131806 76 0 153
0.088550 0.109746 -0.095763 76 0 153
0.152446 0.271430 -0.061548 0 255 0
0.093425 0.450608 0.002244 0 255 0
0.107537 -0.889616 -0.202444 153 0 76
0.034897 -0.769337 -0.180936 76 0 153
-0.061696 0.190534 0.036737 0 255 0
-0.088091 0.201080 0.239730 0 127 127
0.003404 -0.011767 -0.163408 76 0 153
0.041724 -0.190455 -0.242807 76 0 153
-0.126630 0.272825 -0.223817 0 255 0
0.109437 0.554716 -0.163727 0 255 0
-0.155033 0.418215 -0.101024 0 255 0
-0.043856 0.554716 -0.014707 0 255 0
-0.088483 0.161772 0.378053 0 127 127
-0.030126 0.075879 -0.251687 76 0 153
0.009313 0.594764 0.302195 0 255 0
0.092033 0.069330 -0.143092 76 0 153
0.016431 0.554716 0.012705 0 255 0
0.044927 -0.011767 -0.211366 76 0 153
-0.154331 -0.930696 -0.019232 153 0 76
0.052031 -0.173903 -0.191604 76 0 153
0.074278 0.150022 -0.216654 76 0 153
0.016174 -0.052367 -0.236042 76 0 153
-0.132088 0.397612 -0.033652 0 255 0
-0.041342 -0.705569 -0.060620 76 0 153
0.008930 0.257801 0.351821 0 127 127
0.044319 0.096485 0.259098 0 127 127
0.002410 -0.554317 -0.039195 76 0 153
0.087471 0.156046 0.457171 76 153 0
0.116651 0.069330 -0.101870 76 0 153
0.097234 0.518058 -0.234051 0 255 0
0.079061 0.279200 -0.263265 0 255 0
0.004216 -0.915637 0.064475 153 0 76
0.082818 0.109746 -0.171008 76 0 153
-0.088080 -0.133475 -0.085698 76 0 153
0.040358 -0.545531 -0.190195 76 0 153
0.025887 0.679231 0.588588 0 255 0
-0.112561 0.525557 -0.019529 0 255 0
0.138127 0.175989 -0.216086 0 255 0
0.036353 0.006381 0.015198 76 0 153
-0.022904 -0.153186 0.012430 76 0 153
-0.164460 0.179449 -0.075159 0 255 0
-0.060681 -0.011767 -0.118301 76 0 153
0.076842 -0.011767 -0.059403 76 0 153
-0.005571 -0.586012 -0.120322 76 0 153
-0.096133 0.173692 0.019750 0 255 0
0.095111 0.531468 -0.004542 0 255 0
0.065317 -0.630956 -0.156788 76 0 153
-0.026899 0.648377 0.552869 0 255 0
-0.083300 -0.133475 -0.175709 76 0 153
0.087180 -0.173903 -0.162351 76 0 153
-0.079721 -0.509921 -0.091600 76 0 153
-0.043235 -0.790100 -0.175035 76 0 153
-0.151181 0.459882 -0.088968 0 255 0
0.041160 -0.092950 -0.085242 76 0 153
-0.058371 -0.892039 -0.252288 153 0 76
-0.066214 -0.282482 -0.214874 76 0 153
0.087471 0.232399 0.386066 0 127 127
0.101067 0.162455 0.015951 0 255 0
0.020700 0.290785 0.519971 76 153 0
0.009025 0.150022 -0.059160 76 0 153
0.182272 -0.925494 -0.104663 153 0 76
-0.012131 0.109746 -0.118728 0 127 127
-0.097750 -0.379535 -0.134872 76 0 153
-0.008264 -0.499697 -0.120677 76 0 153
0.007601 -0.052367 -0.169997 76 0 153
-0.078404 -0.589247 -0.122422 76 0 153
-0.003094 0.204525 0.592617 76 153 0
-0.027924 0.069330 -0.074792 0 127 127
0.087471 0.165602 0.376775 0 127 127
-0.114539 0.370036 -0.008340 0 255 0
-0.062124 0.072494 0.211679 0 127 127
-0.126033 0.005330 -0.179121 76 0 153
0.041872 -0.719380 -0.062326 76 0 153
-0.047249 0.554716 -0.212210 0 255 0
-0.013164 0.069330 -0.179892 76 0 153
0.025887 0.633884 0.411629 0 255 0
0.035598 -0.052367 -0.084515 0 127 127
-0.040580 -0.052367 -0.024561 0 127 127
-0.117950 -0.173903 -0.071130 76 0 153
-0.040876 -0.173903 -0.214137 76 0 153
-0.095884 -0.052367 -0.156213 76 0 153
0.018628 -0.400619 -0.213692 76 0 153
0.005765 0.317087 -0.281305 0 255 0
-0.157336 0.325529 -0.159052 0 255 0
0.028682 -0.092950 -0.216212 76 0 153
-0.150112 0.385958 -0.069598 0 255 0
-0.088483 0.175302 0.499885 76 153 0
0.133283 0.044673 -0.152691 76 0 153
-0.059946 -0.644389 -0.075074 76 0 153
-0.084604 0.510206 0.005741 0 255 0
-0.134405 -0.016956 -0.078931 76 0 153
-0.135847 0.466044 -0.046435 0 255 0
0.067757 -0.453518 -0.177736 76 0 153
-0.023978 0.189873 0.217583 0 127 127
0.081083 -0.866798 -0.071069 153 0 76
-0.042434 -0.760841 -0.063188 76 0 153
-0.049817 -0.893593 0.023613 153 0 76
-0.050867 0.063832 0.006407 76 0 153
0.087471 0.243815 0.475791 76 153 0
-0.021525 -0.250176 0.000069 76 0 153
0.071431 -0.252586 -0.217062 76 0 153
-0.046203 0.454387 -0.267077 0 255 0
-0.088483 0.155886 0.190544 0 127 127
-0.026605 -0.237363 -0.240711 76 0 153
0.099583 -0.052367 -0.117083 76 0 153
0.004019 -0.011767 -0.001983 0 127 127
0.111516 0.084612 -0.193686 76 0 153
0.124152 -0.077103 -0.180919 76 0 153
-0.078060 0.487776 -0.251597 0 255 0
-0.071835 0.179337 0.555305 76 153 0
0.053622 0.465068 0.023651 0 255 0
0.167305 0.217951 -0.119259 0 255 0
-0.008610 0.547060 0.083643 0 255 0
0.009548 0.524520 0.383442 0 255 0
-0.017821 -0.092950 -0.069838 0 127 127
-0.007014 0.554716 -0.066887 0 255 0
-0.129481 0.318263 -0.023231 0 255 0
-0.085944 0.246391 0.524268 76 153 0
0.036136 0.069330 -0.204161 76 0 153
0.045512 0.337537 -0.273759 0 255 0
0.135475 -0.060235 -0.086759 76 0 153
-0.016038 -0.173903 -0.155773 76 0 153
-0.039797 0.109746 -0.187366 76 0 153
-0.043195 0.069330 -0.206259 76 0 153
0.087471 0.238977 0.331767 0 127 127
0.059463 0.290785 0.484861 76 153 0
0.107447 0.245144 0.005439 0 255 0
-0.003066 0.721342 0.442641 0 255 0
-0.127415 -0.197138 -0.144875 76 0 153
0.087471 0.019726 0.075382 0 127 127
-0.009216 -0.120472 -0.256163 76 0 153
0.015385 0.477536 0.168186 0 255 0
-0.035289 -0.585281 -0.189518 76 0 153
0.038984 -0.476994 -0.197578 76 0 153
0.108547 -0.092950 -0.142122 76 0 153
-0.165504 0.195098 -0.150850 0 255 0
-0.026899 0.646082 0.483115 0 255 0
0.097635 -0.372991 -0.134492 76 0 153
-0.101948 0.345371 -0.242939 0 255 0
0.025887 0.629824 0.371937 0 255 0
0.115162 0.244629 -0.238865 0 255 0
0.176014 -0.918975 -0.172148 153 0 76
0.086574 0.180085 0.511795 76 153 0
-0.038142 0.144717 0.354433 0 127 127
-0.114343 -0.152801 -0.191279 76 0 153
0.015507 0.454885 0.064408 0 255 0
0.060305 0.124929 -0.004521 0 255 0
0.001834 0.290785 0.586661 76 153 0
0.013528 -0.668950 -0.191564 76 0 153
-0.033256 -0.133475 -0.020222 76 0 153
-0.127940 0.193185 -0.010153 0 255 0
0.081767 0.554716 -0.198659 0 255 0
0.122548 0.148490 -0.085733 76 0 153
0.161895 0.274294 -0.101425 0 255 0
0.124910 0.552530 -0.039329 0 255 0
-0.049016 -0.093469 -0.249055 76 0 153
-0.084009 -0.133475 -0.037139 76 0 153
0.070028 -0.758170 -0.116280 76 0 153
0.066901 -0.413164 -0.186454 76 0 153
0.030711 0.028812 -0.059466 0 127 127
0.102675 0.028812 -0.092099 76 0 153
-0.055891 0.141224 0.443759 76 153 0
-0.088483 0.085308 0.059670 0 127 127
-0.015750 -0.667132 -0.121662 76 0 153
0.069081 -0.842436 -0.149455 76 0 153
0.042768 -0.401267 -0.034052 76 0 153
-0.016323 0.127224 0.093776 0 127 127
-0.017934 0.387432 -0.276013 0 255 0
-0.069068 -0.767285 -0.102567 76 0 153
0.076334 0.040830 0.149086 0 127 127
0.049085 0.141224 0.509327 76 153 0
0.008840 0.056463 0.179992 0 127 127
0.127564 0.314435 -0.217597 0 255 0
-0.058049 -0.002856 0.006956 76 0 153
0.117839 -0.241039 -0.154990 76 0 153
-0.000637 -0.206445 -0.119673 76 0 153
-0.050355 0.554716 -0.106239 0 255 0
-0.157651 -0.894751 -0.104738 153 0 76
0.075522 0.150022 -0.268223 0 255 0
-0.079872 0.554716 -0.039682 0 255 0
-0.091979 -0.344300 -0.070765 76 0 153
-0.086656 -0.408290 -0.159288 76 0 153
0.133461 0.400154 -0.202325 0 255 0
-0.060073 -0.401680 -0.194443 76 0 153
0.076228 0.213803 0.547658 76 153 0
0.126319 0.554716 -0.109741 0 255 0
0.087471 0.181320 0.250018 0 127 127
-0.092911 -0.212718 -0.208172 76 0 153
0.028375 -0.882624 -0.235481 153 0 76
0.093486 0.008785 -0.017056 76 0 153
0.028194 -0.011767 -0.047657 0 127 127
0.025887 0.599280 0.496009 0 255 0
0.025887 0.537899 0.195983 0 255 0
0.015165 -0.596084 -0.195399 76 0 153
-0.061092 -0.837170 -0.078131 153 0 76
-0.051284 -0.370837 -0.033156 76 0 153
-0.144961 0.449116 -0.173257 0 255 0
0.025887 0.664720 0.536372 0 255 0
-0.088483 0.167058 0.309940 0 127 127
0.019258 0.123697 0.008660 76 0 153
-0.012316 0.566885 0.174470 0 255 0
0.157956 0.343086 -0.099899 0 255 0
-0.073127 -0.551350 -0.154388 76 0 153
0.023784 -0.800506 -0.054074 76 0 153
-0.026919 -0.317296 -0.225408 76 0 153
0.071575 0.028812 -0.166763 76 0 153
-0.106841 0.420737 -0.234065 0 255 0
-0.017227 0.344503 0.039129 0 255 0
-0.068604 0.223175 0.559516 76 153 0
-0.021111 0.141224 0.484351 76 153 0
-0.072959 -0.121446 -0.236011 76 0 153
0.126344 -0.155973 -0.162586 76 0 153
0.078902 0.290785 0.422323 76 153 0
0.025887 0.591395 0.353856 0 255 0
-0.108441 0.544702 -0.223457 0 255 0
0.103111 -0.133475 -0.104047 76 0 153
-0.086243 -0.453289 -0.146648 76 0 153
-0.006939 -0.285377 -0.120502 76 0 153
-0.100661 -0.871403 -0.113593 153 0 76
0.094102 0.378769 -0.245914 0 255 0
0.040466 0.146631 0.358217 0 127 127
-0.064932 0.104878 0.275689 0 127 127
0.009875 -0.817725 -0.150976 153 0 76
0.025887 0.505444 0.077746 0 255 0
-0.002122 -0.092950 -0.015279 76 0 153
-0.110996 0.459923 -0.227631 0 255 0
-0.140298 -0.073796 -0.118774 76 0 153
-0.152453 0.490996 -0.111477 0 255 0
-0.026899 0.483616 0.055574 0 255 0
-0.098107 0.028812 -0.160292 76 0 153
0.043635 -0.338746 -0.213930 76 0 153
0.036792 -0.635591 -0.185138 76 0 153
-0.045113 0.244041 0.580697 76 153 0
-0.049583 0.008678 0.085543 0 127 127
-0.032865 0.150022 0.047390 0 255 0
-0.001691 0.467887 0.123977 0 255 0
-0.135069 0.397523 -0.201782 0 255 0
-0.128880 0.516638 -0.199304 0 255 0
-0.011395 0.672262 0.384212 0 255 0
-0.009853 0.082335 0.231132 0 127 127
0.007820 0.492149 0.235133 0 255 0
-0.096768 -0.379200 -0.096657 76 0 153
0.053940 0.069330 -0.131292 76 0 153
-0.052634 0.028812 -0.012791 76 0 153
0.066832 -0.677865 -0.092119 76 0 153
0.123394 -0.109843 -0.060462 76 0 153
-0.006074 0.072423 -0.014520 0 127 127
0.087471 0.270679 0.503866 76 153 0
0.099764 0.109746 -0.137413 76 0 153
0.066568 -0.092950 -0.210944 76 0 153
0.002206 -0.117154 0.017845 76 0 153
-0.134383 0.071490 -0.138444 76 0 153
-0.042371 0.150022 -0.194148 76 0 153
0.031151 0.150022 -0.285238 0 255 0
-0.047345 0.095192 0.030476 0 127 127
-0.064402 0.286152 -0.269351 0 255 0
-0.071992 0.069330 -0.116766 76 0 153
0.120094 -0.039643 -0.191353 76 0 153
0.115888 -0.926286 -0.261225 153 0 76
0.014695 0.074975 -0.253671 76 0 153
-0.031474 -0.006981 0.054589 0 127 127
0.002740 -0.855575 -0.035618 153 0 76
0.043559 0.523632 0.024404 0 255 0
-0.017174 -0.522413 -0.200970 76 0 153
0.008621 0.271296 -0.283418 0 255 0
-0.067740 0.320420 0.026659 0 255 0
0.163678 0.194243 -0.081919 0 255 0
0.015283 -0.092950 -0.130304 76 0 153
-0.149985 0.253224 -0.050602 0 255 0
0.088564 0.069330 -0.062981 76 0 153
0.081587 0.421805 -0.252595 0 255 0
-0.124068 -0.109656 -0.179694 76 0 153
0.157580 0.240813 -0.169677 0 255 0
-0.129667 0.353468 -0.212721 0 255 0
0.009020 0.214151 0.047160 0 255 0
-0.101109 -0.887693 -0.036345 153 0 76
0.014885 0.028812 -0.212579 76 0 153
0.007043 0.721342 0.560382 0 255 0
0.111494 0.150022 -0.212567 0 255 0
-0.008010 0.129761 0.324872 0 127 127
-0.088483 0.243962 0.393434 0 127 127
0.032029 0.069330 -0.076749 0 127 127
0.071548 -0.591716 -0.148036 76 0 153
-0.076927 -0.193002 -0.014907 76 0 153
0.019388 -0.473604 -0.034070 76 0 153
-0.088483 0.163383 0.452887 76 153 0
0.066781 -0.571103 -0.077835 76 0 153
-0.027635 0.007969 -0.255923 76 0 153
0.014592 0.554716 -0.234130 0 255 0
0.076303 0.141224 0.534128 76 153 0
0.135073 -0.034662 -0.156393 76 0 153
0.064371 0.027216 0.002860 76 0 153
0.165900 0.169274 -0.150817 0 255 0
-0.154483 0.349901 -0.075073 0 255 0
0.058484 -0.821189 -0.081373 76 0 153
-0.068593 -0.117504 0.000058 76 0 153
-0.129399 0.085889 -0.081143 76 0 153
-0.076297 0.290785 0.476750 76 153 0
-0.126907 -0.218918 -0.112276 76 0 153
-0.052146 0.109746 -0.058220 76 0 153
-0.009212 -0.312931 -0.010607 76 0 153
-0.026899 0.634107 0.518413 0 255 0
0.028205 -0.082479 -0.255525 76 0 153
0.148522 0.508135 -0.142929 0 255 0
0.002502 0.290785 0.420308 76 153 0
0.083166 -0.033335 -0.008255 0 127 127
-0.026899 0.604458 0.396996 0 255 0
-0.084586 -0.443766 -0.085816 76 0 153
-0.101053 0.117347 -0.036159 76 0 153
-0.115658 -0.099357 -0.043435 76 0 153
-0.088483 0.037708 0.120129 0 127 127
-0.094081 0.109746 -0.170723 76 0 153
0.040056 0.240446 0.041645 0 255 0
-0.130977 0.501699 -0.041417 0 255 0
0.025887 0.571739 0.425446 0 255 0
-0.053686 0.290785 0.543588 76 153 0
-0.071828 0.250766 0.029028 0 255 0
-0.152187 -0.894517 -0.161267 153 0 76
-0.086381 0.360321 0.014557 0 255 0
-0.132900 -0.145934 -0.094503 76 0 153
0.008578 -0.270362 -0.002029 76 0 153
-0.058175 0.150022 -0.013365 76 0 153
0.104097 -0.874547 -0.124590 153 0 76
0.072829 -0.173903 -0.072761 76 0 153
-0.088483 0.165289 0.263226 0 127 127
-0.123012 -0.957692 -0.256535 153 0 76
-0.120671 -0.924314 0.019021 153 0 76
0.046264 0.150022 -0.050155 0 255 0
0.042129 0.531848 -0.263827 0 255 0
-0.111753 -0.052367 -0.108831 76 0 153
0.082718 -0.052367 -0.191500 76 0 153
0.156934 0.283042 -0.165292 0 255 0
-0.108536 -0.011767 -0.117892 76 0 153
0.088930 -0.052367 -0.046351 76 0 153
-0.066864 0.522348 -0.254555 0 255 0
0.117715 0.117824 -0.175359 76 0 153
0.084170 0.188973 -0.266411 0 255 0
-0.052228 -0.583766 -0.061083 76 0 153
-0.025615 -0.662671 -0.188690 76 0 153
-0.179220 -0.933960 -0.073795 153 0 76
-0.026899 0.508198 0.169502 0 255 0
-0.134406 -0.896422 -0.228725 153 0 76
0.128190 -0.031497 -0.066311 76 0 153
0.044958 0.109746 -0.175732 76 0 153
-0.092564 -0.085104 -0.223437 76 0 153
0.099848 -0.206273 -0.199117 76 0 153
0.045249 -0.092950 -0.021853 76 0 153
-0.004840 0.503328 0.286349 0 255 0
-0.003874 0.069330 -0.140574 76 0 153
0.113301 0.026802 -0.041232 76 0 153
-0.010541 0.109746 -0.214676 76 0 153
-0.157256 0.364937 -0.143387 0 255 0
0.124029 -0.180404 -0.077530 76 0 153
-0.039702 -0.184097 0.005601 76 0 153
-0.029581 -0.807495 -0.056103 76 0 153
0.089013 -0.038921 -0.226579 76 0 153
0.111391 -0.011767 -0.133673 76 0 153
0.004458 0.141224 0.591906 76 153 0
0.005190 -0.302731 -0.231354 76 0 153
0.087471 0.074601 0.008955 0 127 127
-0.052177 -0.092950 -0.141578 76 0 153
0.055117 0.109746 -0.229245 76 0 153
0.075583 0.182889 0.031012 0 255 0
-0.056870 -0.956172 0.055261 153 0 76
-0.060862 0.185629 -0.276680 0 255 0
-0.078156 -0.878695 -0.200144 153 0 76
-0.006762 -0.133475 -0.047978 76 0 153
0.076827 -0.113268 -0.006419 76 0 153
-0.026899 0.556638 0.283777 0 255 0
-0.088483 0.218531 0.494735 76 153 0
0.087471 0.117188 0.142638 0 127 127
-0.062292 -0.525148 -0.064577 76 0 153
0.081114 0.109746 -0.056860 76 0 153
-0.082326 0.150022 -0.081978 76 0 153
0.043918 0.253954 -0.279294 0 255 0
0.095156 -0.894572 -0.243460 153 0 76
-0.041556 -0.435774 -0.201738 76 0 153
0.093631 0.311122 -0.250870 0 255 0
0.037428 -0.012233 -0.254703 76 0 153
-0.015966 -0.133475 -0.223452 76 0 153
-0.026899 0.488617 0.110170 0 255 0
-0.058332 -0.256187 -0.013230 76 0 153
-0.004831 0.028812 -0.014877 76 0 153
0.025887 0.546329 0.135862 0 255 0
0.018329 -0.173903 -0.164179 76 0 153
0.037180 0.322841 0.037546 0 255 0
-0.084717 0.554716 -0.076502 0 255 0
-0.164055 -0.933495 -0.203462 153 0 76
-0.021304 -0.584741 -0.043962 76 0 153
0.067349 -0.173903 -0.037833 76 0 153
0.135863 -0.113333 -0.132737 76 0 153
-0.080925 0.069330 -0.189880 76 0 153
0.001145 -0.427148 -0.026543 76 0 153
0.062735 -0.238604 -0.012848 76 0 153
-0.016742 0.290785 0.471544 76 153 0
-0.101259 0.306840 -0.246084 0 255 0
-0.085675 -0.327563 -0.182861 76 0 153
0.002658 -0.258660 -0.240265 76 0 153
-0.139877 0.532354 -0.065501 0 255 0
-0.012770 -0.424547 -0.121270 76 0 153
0.087471 -0.007565 0.053106 0 127 127
-0.084703 -0.011767 -0.184919 76 0 153
-0.056162 0.152811 0.572218 76 153 0
-0.088483 0.120236 0.207404 0 127 127
-0.106167 -0.163852 -0.039044 76 0 153
-0.084496 0.373565 -0.254415 0 255 0
-0.080124 -0.025909 -0.234152 76 0 153
0.095315 -0.133475 -0.170992 76 0 153
0.025887 0.558646 0.390496 0 255 0
0.027955 0.256951 0.587603 76 153 0
0.155162 -0.894576 -0.103201 153 0 76
-0.004666 0.150022 -0.176403 76 0 153
-0.030079 0.028812 -0.175305 76 0 153
0.002512 -0.043428 0.020480 76 0 153
0.022722 -0.173903 -0.026792 76 0 153
-0.027435 0.261433 0.042299 0 255 0
0.125503 0.096211 -0.076739 76 0 153
0.071510 0.150022 -0.150993 76 0 153
-0.104141 0.150022 -0.222874 0 255 0
-0.002962 -0.128005 -0.119979 76 0 153
0.002779 -0.480560 -0.206710 76 0 153
-0.088526 0.109746 -0.129788 76 0 153
-0.001148 0.581078 0.239497 0 255 0
-0.183455 -0.920181 -0.105965 153 0 76
-0.018990 0.173718 0.590525 76 153 0
0.021074 0.451783 -0.271969 0 255 0
0.031529 0.069330 -0.017782 0 127 127
0.043197 -0.232089 -0.236033 76 0 153
0.000002 0.642045 0.352374 0 255 0
0.016379 -0.951859 0.062873 153 0 76
0.007909 0.150022 -0.259529 0 255 0
0.044595 0.395192 0.031465 0 255 0
-0.042998 -0.092950 -0.179766 76 0 153
-0.161848 0.285842 -0.098150 0 255 0
0.104089 0.554716 -0.069095 0 255 0
-0.154081 0.150089 -0.193342 0 255 0
-0.071652 -0.675245 -0.137447 76 0 153
0.135547 -0.922306 0.003928 153 0 76
-0.118149 0.150022 -0.037223 0 255 0
0.037441 0.038471 0.144425 0 127 127
-0.026899 0.597531 0.357506 0 255 0
-0.142422 0.530711 -0.167897 0 255 0
-0.159411 0.268470 -0.163806 0 255 0
0.087471 0.153637 0.188982 0 127 127
-0.026899 0.536848 0.390354 0 255 0
-0.162934 0.213896 -0.076699 0 255 0
0.054290 -0.866118 -0.043907 153 0 76
0.058606 -0.710563 -0.160145 76 0 153
-0.086400 -0.173903 -0.179940 76 0 153
0.119775 0.150022 -0.034160 0 255 0
-0.038628 0.109746 -0.004637 76 0 153
-0.016022 0.472912 -0.271619 0 255 0
0.065095 0.080243 0.226991 0 127 127
0.056738 -0.077451 0.006656 76 0 153
-0.093218 -0.052367 -0.079889 76 0 153
0.157888 0.388404 -0.118093 0 255 0
0.025887 0.573752 0.323666 0 255 0
-0.017735 -0.044241 -0.257921 76 0 153
0.016500 -0.011767 -0.120906 0 127 127
0.058591 0.141224 0.476405 76 153 0
-0.097715 -0.955030 0.036636 153 0 76
0.100906 0.488800 -0.006090 0 255 0
-0.070103 -0.800446 -0.112893 76 0 153
-0.137744 0.003888 -0.140423 76 0 153
-0.029470 0.554716 -0.176184 0 255 0
-0.053704 0.198897 0.235416 0 127 127
0.111521 0.089104 -0.046330 76 0 153
-0.104681 -0.231296 -0.051126 76 0 153
0.168984 -0.919829 -0.050192 153 0 76
0.013844 0.198324 -0.286696 0 255 0
0.041913 -0.269247 -0.009488 76 0 153
0.074646 -0.612524 -0.107814 76 0 153
0.024680 0.150022 -0.207985 76 0 153
0.055195 -0.647248 -0.070455 76 0 153
-0.015789 0.517797 -0.269211 0 255 0
-0.080425 -0.228456 -0.023665 76 0 153
-0.048644 -0.699815 -0.173306 76 0 153
0.087471 0.135089 0.306917 0 127 127
0.051865 -0.017326 0.034135 0 127 127
-0.035822 0.228620 0.294154 0 127 127
-0.001817 -0.356364 -0.119828 76 0 153
-0.091513 0.150022 -0.006468 0 255 0
0.083778 -0.344081 -0.059890 76 0 153
0.152593 0.190276 -0.188835 0 255 0
-0.003726 0.104054 0.047990 0 127 127
0.032255 0.109746 -0.019478 76 0 153
-0.033711 -0.011767 -0.015031 0 127 127
-0.129322 -0.092950 -0.073874 76 0 153
-0.136464 -0.109595 -0.137596 76 0 153
-0.122971 -0.206056 -0.080791 76 0 153
0.058391 -0.011767 -0.117155 76 0 153
-0.062338 -0.250448 -0.225233 76 0 153
-0.088483 0.014688 0.039744 0 127 127
0.025887 0.683174 0.459898 0 255 0
-0.063066 -0.355995 -0.199711 76 0 153
-0.026899 0.544200 0.335790 0 255 0
-0.072918 0.123126 0.311757 0 127 127
-0.083103 -0.052367 -0.036866 76 0 153
-0.071333 -0.705431 -0.108329 76 0 153
-0.109835 -0.231698 -0.180534 76 0 153
-0.137055 0.050301 -0.110325 76 0 153
-0.044904 0.465524 0.027655 0 255 0
-0.094903 0.554716 -0.194217 0 255 0
0.064701 0.028812 -0.100225 76 0 153
-0.026899 0.579933 0.467473 0 255 0
-0.070389 0.554716 -0.140100 0 255 0
0.138932 0.514513 -0.063149 0 255 0
-0.088483 0.212328 0.318046 0 127 127
0.123717 0.207611 -0.007244 0 255 0
0.156829 0.150022 -0.096749 0 255 0
0.071087 -0.074781 -0.239524 76 0 153
-0.026899 0.540244 0.156175 0 255 0
0.011961 0.109746 -0.063365 0 127 127
-0.182578 -0.933167 -0.140007 153 0 76
-0.057070 -0.926547 -0.294489 153 0 76
-0.065754 -0.290199 -0.025900 76 0 153
-0.071522 -0.738943 -0.122029 76 0 153
0.041503 -0.133475 -0.154080 76 0 153
0.012637 -0.680744 -0.048130 76 0 153
0.043184 -0.143847 0.008086 76 0 153
-0.026899 0.591680 0.297470 0 255 0
-0.114352 -0.277958 -0.146590 76 0 153
-0.003907 0.538875 0.448974 0 255 0
0.055611 0.193048 0.571865 76 153 0
-0.041535 -0.173903 -0.094873 76 0 153
-0.175231 -0.913261 -0.176482 153 0 76
-0.080483 0.059913 0.186812 0 127 127
0.064641 0.028812 -0.033721 76 0 153
0.017071 0.141224 0.432880 76 153 0
0.010497 0.159290 0.157146 0 127 127
-0.014969 0.290785 0.509508 76 153 0
-0.026899 0.684866 0.551838 0 255 0
-0.007681 0.624883 0.569301 0 255 0
-0.150070 0.489497 -0.146551 0 255 0
-0.042266 0.420250 -0.270699 0 255 0
-0.026899 0.619773 0.454655 0 255 0
-0.088483 0.138906 0.122327 0 127 127
-0.063533 -0.092950 -0.056539 76 0 153
-0.024616 -0.733478 -0.052947 76 0 153
-0.049968 0.532201 0.021668 0 255 0
-0.145130 0.329764 -0.189653 0 255 0
0.061708 0.150022 -0.184928 76 0 153
-0.116383 -0.133475 -0.120465 76 0 153
0.062511 -0.892630 -0.252849 153 0 76
0.003743 -0.736488 -0.190473 76 0 153
0.084281 0.260442 0.357041 0 127 127
0.024511 -0.840826 -0.190376 153 0 76
-0.022659 0.554716 -0.234406 0 255 0
0.038356 0.046875 -0.251647 76 0 153
0.025482 0.290785 0.553041 76 153 0
-0.043666 -0.817725 -0.103205 153 0 76
-0.012289 -0.370923 -0.020823 76 0 153
0.068711 -0.809246 -0.110415 76 0 153
-0.070169 -0.896891 0.049436 153 0 76
0.021006 0.454014 0.031904 0 255 0
-0.106561 -0.314587 -0.091155 76 0 153
0.102440 0.021630 -0.212510 76 0 153
-0.054900 -0.402629 -0.041049 76 0 153
0.044065 -0.133475 -0.090001 76 0 153
0.123378 -0.232284 -0.109011 76 0 153
0.007788 0.141224 0.556965 76 153 0
0.087905 0.077534 -0.221488 76 0 153
0.087471 0.129389 0.256284 0 127 127
-0.052985 -0.858856 -0.188349 153 0 76
-0.071015 0.391031 0.021184 0 255 0
0.151325 0.191478 -0.047585 0 255 0
0.087377 -0.181909 -0.217330 76 0 153
0.061738 -0.284312 -0.217102 76 0 153
0.091675 0.554716 -0.136121 0 255 0
0.024206 0.007552 0.083312 0 127 127
-0.063427 -0.052367 -0.149509 76 0 153
-0.058645 -0.011767 -0.068992 76 0 153
-0.037035 0.141456 0.416978 76 153 0
-0.088483 0.053560 0.015895 0 127 127
0.084669 0.344235 0.016187 0 255 0
0.019947 0.109746 -0.131986 76 0 153
-0.102327 0.013385 -0.024896 76 0 153
0.022017 0.244204 0.324952 0 127 127
0.120140 -0.887546 -0.168366 153 0 76
0.000278 0.023752 0.115336 0 127 127
0.041321 0.290785 0.453768 76 153 0
0.087471 0.185689 0.289404 0 127 127
0.025887 0.629951 0.479766 0 255 0
-0.026899 0.514086 0.221457 0 255 0
0.067774 0.290785 0.557403 76 153 0
-0.115012 0.028812 -0.128379 76 0 153
-0.001141 -0.894467 -0.276617 153 0 76
-0.023400 -0.011767 -0.230370 76 0 153
-0.004105 -0.373924 -0.219145 76 0 153
-0.084506 -0.412605 -0.076261 76 0 153
-0.108535 -0.312729 -0.136440 76 0 153
-0.097368 -0.052367 -0.219513 76 0 153
-0.105466 -0.266312 -0.176077 76 0 153
0.087471 0.209835 0.441321 76 153 0
-0.168773 -0.915218 -0.047239 153 0 76
0.086658 -0.482486 -0.118711 76 0 153
0.091376 -0.427956 -0.129944 76 0 153
-0.025455 -0.929643 -0.301122 153 0 76
0.025887 0.605679 0.429842 0 255 0
0.107713 0.028812 -0.164851 76 0 153
-0.026899 0.538399 0.054998 0 255 0
0.025887 0.665230 0.419850 0 255 0
0.111552 -0.272761 -0.155795 76 0 153
-0.026899 0.636386 0.411251 0 255 0
0.068818 0.222385 0.031511 0 255 0
0.062437 0.013370 0.094809 0 127 127
0.025887 0.551898 0.264147 0 255 0
-0.036162 0.164967 -0.285704 0 255 0
-0.019760 0.245597 -0.283481 0 255 0
0.026270 0.108554 0.282954 0 127 127
0.077940 -0.009829 -0.234946 76 0 153
0.150937 0.443565 -0.151242 0 255 0
0.066824 -0.928586 0.050719 153 0 76
0.064965 -0.052367 -0.110207 76 0 153
0.023861 -0.118678 -0.254212 76 0 153
0.087471 0.096539 0.116309 0 127 127
-0.022115 -0.853678 -0.199897 153 0 76
-0.055777 -0.676151 -0.072063 76 0 153
-0.088483 0.206626 0.371296 0 127 127
0.025887 0.504182 0.113558 0 255 0
0.134847 0.068181 -0.129358 76 0 153
-0.021193 -0.092950 -0.229533 76 0 153
0.087471 0.106376 0.216043 0 127 127
-0.011635 -0.052367 -0.139224 76 0 153
-0.144198 0.554716 -0.127349 0 255 0
0.099363 0.551224 -0.230165 0 255 0
-0.165925 0.257836 -0.121757 0 255 0
-0.154007 0.281917 -0.064351 0 255 0
-0.077682 0.413390 -0.256429 0 255 0
0.002681 -0.052367 -0.201673 76 0 153
-0.088483 0.180266 0.425566 76 153 0
0.017432 -0.052367 -0.049537 0 127 127
0.128661 0.361559 -0.027314 0 255 0
-0.126725 0.477552 -0.205573 0 255 0
0.090738 -0.255291 -0.040426 76 0 153
0.022962 0.554716 -0.185567 0 255 0
0.004413 0.012015 0.019403 76 0 153
0.009294 -0.092950 -0.087975 0 127 127
0.009413 0.150022 -0.145942 76 0 153
0.018643 -0.333867 -0.016606 76 0 153
0.087471 0.055491 0.114187 0 127 127
0.027781 -0.206872 0.005640 76 0 153
0.050589 -0.512294 -0.053351 76 0 153
0.072590 0.554716 -0.074445 0 255 0
-0.117745 0.122990 -0.063286 76 0 153
-0.124065 -0.052367 -0.140690 76 0 153
-0.038583 -0.430945 -0.035743 76 0 153
0.058375 0.109746 -0.106555 76 0 153
-0.088483 0.123105 0.254508 0 127 127
-0.078322 0.105739 -0.226248 76 0 153
-0.115614 0.293564 -0.003339 0 255 0
0.072758 -0.496876 -0.075345 76 0 153
-0.034378 0.315242 0.038461 0 255 0
0.126333 0.150022 -0.173121 76 0 153
0.026716 -0.011767 -0.184913 76 0 153
0.087471 0.206034 0.324658 0 127 127
-0.024947 -0.011767 -0.181154 76 0 153
0.107441 -0.204983 -0.049828 76 0 153
-0.068229 0.220410 0.277931 0 127 127
-0.026136 -0.072727 0.016910 76 0 153
0.109290 -0.173903 -0.131845 76 0 153
0.097922 -0.092950 -0.068502 76 0 153
-0.004885 0.653443 0.582515 0 255 0
-0.100477 -0.173903 -0.110383 76 0 153
0.012573 -0.173903 -0.232370 76 0 153
-0.145463 -0.893483 -0.075625 153 0 76
-0.039057 0.271382 0.378661 0 127 127
-0.063771 -0.840402 -0.159923 153 0 76
0.007541 -0.396384 -0.023618 76 0 153
0.153976 0.385932 -0.151955 0 255 0
-0.109103 0.050871 -0.036853 76 0 153
-0.026899 0.681130 0.445065 0 255 0
-0.019519 -0.133475 -0.078586 76 0 153
0.061732 -0.133475 -0.213131 76 0 153
0.025887 0.475445 0.137079 0 255 0
0.038719 0.219470 -0.282272 0 255 0
0.078826 -0.548414 -0.104636 76 0 153
0.060414 0.193941 0.225622 0 127 127
0.087471 0.058374 0.172645 0 127 127
-0.149511 0.150022 -0.135373 0 255 0
-0.149649 0.523490 -0.103595 0 255 0
-0.033845 0.150022 -0.113795 76 0 153
-0.070820 0.109746 -0.191814 76 0 153
-0.074027 -0.633901 -0.104553 76 0 153
-0.085018 -0.484534 -0.139140 76 0 153
-0.048292 -0.315854 -0.021888 76 0 153
-0.049144 -0.926019 0.058461 153 0 76
-0.153660 0.150022 -0.075158 0 255 0
-0.027073 -0.817725 -0.154595 153 0 76
-0.088483 0.229738 0.460187 76 153 0
0.061201 -0.903100 -0.292359 153 0 76
0.123734 0.150306 -0.002195 0 255 0
-0.124152 0.053415 -0.177579 76 0 153
-0.121512 -0.255565 -0.115071 76 0 153
-0.028590 -0.052367 -0.054121 0 127 127
-0.038637 0.173639 0.185502 0 127 127
0.091024 -0.190681 -0.026141 76 0 153
0.071099 -0.133475 -0.105565 76 0 153
-0.067940 0.141224 0.513664 76 153 0
0.035023 -0.625225 -0.052833 76 0 153
-0.000482 0.028812 -0.056105 0 127 127
-0.145681 0.308578 -0.048003 0 255 0
0.118226 0.421844 -0.019050 0 255 0
0.118045 0.314611 -0.009323 0 255 0
0.001460 -0.011767 -0.090646 0 127 127
0.069586 -0.729563 -0.131009 76 0 153
0.094396 0.487431 -0.238309 0 255 0
0.025796 0.721342 0.508085 0 255 0
0.064877 0.314234 -0.267097 0 255 0
0.011039 -0.743615 -0.049932 76 0 153
0.078729 -0.891487 -0.001024 153 0 76
-0.006937 0.069330 -0.098377 0 127 127
-0.138216 0.200989 -0.215076 0 255 0
-0.026899 0.550426 0.108447 0 255 0
0.057654 0.124663 0.314795 0 127 127
0.153565 -0.955043 -0.219758 153 0 76
0.139481 0.001934 -0.119275 76 0 153
0.097057 -0.154000 -0.027005 76 0 153
0.087471 0.070564 0.059749 0 127 127
0.112483 -0.920837 0.024527 153 0 76
0.121318 0.005526 -0.188045 76 0 153
-0.111317 0.248288 -0.242343 0 255 0
0.080656 -0.494894 -0.146552 76 0 153
0.026352 0.212889 0.588267 76 153 0
-0.012151 -0.735050 -0.121188 76 0 153
-0.065752 0.110216 0.060166 0 127 127
-0.063404 0.290785 0.421481 76 153 0
-0.057761 0.028812 -0.220263 76 0 153
0.011297 -0.173903 -0.088440 76 0 153
-0.079052 0.069330 -0.045367 76 0 153
-0.026899 0.521798 0.275239 0 255 0
-0.101999 -0.133475 -0.151132 76 0 153
0.028359 -0.817725 -0.091571 153 0 76
0.004072 0.555049 0.495625 0 255 0
0.039340 0.369283 -0.274048 0 255 0
-0.131539 -0.166971 -0.140352 76 0 153
0.059696 -0.749575 -0.082261 76 0 153
-0.106222 -0.092950 -0.150756 76 0 153
0.112076 -0.293860 -0.133438 76 0 153
-0.103189 0.554716 -0.016853 0 255 0
0.047751 -0.137986 -0.246087 76 0 153
-0.113153 -0.896902 -0.264030 153 0 76
-0.092002 -0.092950 -0.193571 76 0 153
-0.105368 -0.262432 -0.061103 76 0 153
-0.047320 -0.873305 -0.028124 153 0 76
-0.050405 -0.460644 -0.046045 76 0 153
-0.085109 -0.296990 -0.194600 76 0 153
0.007974 0.150022 0.019604 0 255 0
-0.088483 -0.015942 0.023263 0 127 127
-0.026899 0.569048 0.413574 0 255 0
-0.073162 -0.133475 -0.204614 76 0 153
-0.066732 0.261032 0.358207 0 127 127
0.008436 -0.151784 0.014332 76 0 153
-0.157496 0.225843 -0.174432 0 255 0
0.178253 -0.949097 -0.165173 153 0 76
0.025148 -0.365116 -0.217474 76 0 153
0.090811 -0.384879 -0.084754 76 0 153
-0.098364 0.109746 -0.100843 76 0 153
0.025887 0.531924 0.166053 0 255 0
-0.022080 -0.003893 0.017732 76 0 153
0.153810 0.343017 -0.164389 0 255 0
0.140454 0.344365 -0.196443 0 255 0
0.042166 0.420617 -0.270299 0 255 0
0.120674 0.520592 -0.208329 0 255 0
0.083691 -0.877107 -0.188212 153 0 76
-0.012616 -0.133475 -0.189689 76 0 153
-0.026899 0.701567 0.518498 0 255 0
0.104580 0.150022 -0.145980 76 0 153
0.064915 -0.011767 -0.087390 76 0 153
-0.034750 0.106806 0.279500 0 127 127
-0.088483 0.272663 0.412799 76 153 0
0.181508 -0.955330 -0.098858 153 0 76
-0.078924 0.028812 -0.076150 76 0 153
0.127820 0.120174 -0.142744 76 0 153
0.137873 -0.896094 -0.214319 153 0 76
-0.079275 0.247649 -0.265436 0 255 0
0.138062 0.550857 -0.173143 0 255 0
0.034114 0.099682 -0.248745 76 0 153
0.063625 0.146676 0.132219 0 127 127
-0.055152 -0.052367 -0.094007 76 0 153
0.054938 -0.368360 -0.036302 76 0 153
-0.010421 0.204508 0.246504 0 127 127
0.099433 -0.092950 -0.034433 76 0 153
-0.037098 0.315504 -0.277399 0 255 0
0.136560 0.470614 -0.188069 0 255 0
-0.058566 0.290785 0.452102 76 153 0
0.025887 0.628200 0.544559 0 255 0
0.036479 0.028812 -0.089181 0 127 127
0.077329 -0.011767 -0.197624 76 0 153
-0.022645 0.028812 -0.103150 0 127 127
-0.093361 0.091323 -0.022879 76 0 153
0.008849 -0.827706 -0.049560 76 0 153
0.025887 0.515484 0.294279 0 255 0
-0.056210 -0.564411 -0.176948 76 0 153
-0.032095 0.286524 0.408584 76 153 0
0.116561 0.028812 -0.133325 76 0 153
0.073806 -0.380274 -0.184293 76 0 153
-0.102257 0.069330 -0.075155 76 0 153
0.018385 0.183510 0.047593 0 255 0
0.038072 -0.052367 -0.161071 76 0 153
-0.088483 0.209450 0.432725 76 153 0
-0.030726 0.109746 -0.037150 0 127 127
0.113906 -0.011767 -0.086696 76 0 153
0.087471 0.207389 0.267039 0 127 127
-0.021976 0.513090 0.331073 0 255 0
-0.143712 0.417134 -0.180775 0 255 0
-0.056691 -0.182614 -0.238072 76 0 153
-0.009397 0.116243 0.298153 0 127 127
0.113944 -0.103267 -0.196402 76 0 153
-0.103941 0.245635 0.008873 0 255 0
0.003743 0.028812 -0.117324 0 127 127
-0.053645 0.122585 0.084610 0 127 127
0.008422 0.518138 0.354202 0 255 0
-0.148046 -0.923069 -0.228269 153 0 76
0.014029 0.383778 0.037282 0 255 0
-0.026899 0.676509 0.485096 0 255 0
-0.129564 0.056364 -0.075287 76 0 153
-0.080079 -0.859262 -0.084853 76 0 153
0.116972 0.150022 -0.118555 76 0 153
-0.003014 0.484120 0.030268 0 255 0
-0.028591 0.554716 -0.040395 0 255 0
0.004418 0.290785 0.450192 76 153 0
-0.087590 -0.011767 -0.054704 76 0 153
0.107970 -0.230273 -0.182840 76 0 153
0.039895 -0.303647 -0.223375 76 0 153
0.111332 -0.133475 -0.134682 76 0 153
-0.051041 -0.503444 -0.187395 76 0 153
-0.028338 0.220530 0.587863 76 153 0
-0.082802 0.480710 0.009127 0 255 0
0.015217 0.028812 -0.144990 76 0 153
0.163786 0.244678 -0.103564 0 255 0
0.052388 0.349101 0.030926 0 255 0
-0.085057 0.166591 0.528786 76 153 0
0.057937 0.097936 0.035899 0 127 127
-0.081538 -0.540634 -0.126421 76 0 153
-0.053228 -0.466594 -0.190333 76 0 153
0.074719 -0.133475 -0.032143 76 0 153
-0.084470 0.042117 -0.228063 76 0 153
-0.086321 -0.173903 -0.059027 76 0 153
0.105968 -0.234429 -0.054917 76 0 153
0.070059 -0.656048 -0.141798 76 0 153
-0.026899 0.669190 0.409251 0 255 0
0.033283 0.142935 0.585396 76 153 0
-0.025186 -0.173903 -0.189041 76 0 153
-0.169269 0.173214 -0.131289 0 255 0
0.107313 0.069330 -0.168730 76 0 153
-0.123204 0.133092 -0.159515 0 255 0
-0.113139 0.554716 -0.090266 0 255 0
0.018425 0.084971 0.010278 76 0 153
-0.020827 0.048039 -0.254902 76 0 153
-0.012226 -0.154177 -0.253055 76 0 153
-0.088483 0.260637 0.454906 76 153 0
0.108980 -0.052367 -0.074366 76 0 153
0.057251 0.055808 0.003895 76 0 153
-0.085277 -0.858597 -0.136146 153 0 76
-0.091046 0.150022 -0.187800 0 255 0
-0.088483 0.172709 0.216861 0 127 127
-0.088483 0.241994 0.327092 0 127 127
0.060513 0.109746 -0.029737 76 0 153
0.143410 0.384545 -0.055661 0 255 0
-0.026899 0.562134 0.444049 0 255 0
0.110231 0.330908 -0.236789 0 255 0
-0.088483 0.066799 0.126878 0 127 127
-0.056706 0.001998 -0.246652 76 0 153
0.074847 -0.522686 -0.154027 76 0 153
0.047851 0.170296 0.043233 0 255 0
-0.134721 0.081098 -0.110416 76 0 153
0.181657 -0.925683 -0.139316 153 0 76
0.117624 0.381534 -0.224613 0 255 0
0.031834 -0.907259 -0.300149 153 0 76
0.016773 0.554716 -0.049815 0 255 0
0.004651 0.070304 0.207350 0 127 127
0.025887 0.541749 0.326873 0 255 0
0.042327 0.028812 -0.165971 76 0 153
-0.003373 -0.623407 -0.043951 76 0 153
-0.088483 0.042757 0.079120 0 127 127
-0.029603 -0.052367 -0.191768 76 0 153
0.132593 0.034011 -0.081328 76 0 153
-0.001238 0.689741 0.591269 0 255 0
-0.156681 -0.899877 -0.022295 153 0 76
0.055203 -0.308230 -0.023395 76 0 153
-0.148899 0.181432 -0.037871 0 255 0
0.094955 0.075283 -0.022963 76 0 153
-0.014812 0.233939 0.045456 0 255 0
0.000077 -0.173903 -0.046598 76 0 153
0.088230 -0.442175 -0.097936 76 0 153
0.146246 -0.893946 -0.074859 153 0 76
-0.038593 0.241866 0.320331 0 127 127
-0.088037 -0.011767 -0.018161 76 0 153
-0.095247 0.435603 0.002642 0 255 0
-0.107436 0.009454 -0.207967 76 0 153
0.047463 0.493485 0.024545 0 255 0
0.151827 0.475998 -0.131095 0 255 0
0.087471 0.111195 0.086083 0 127 127
-0.082515 -0.063048 -0.007341 76 0 153
-0.022867 -0.611909 -0.192759 76 0 153
0.076701 -0.930019 -0.285938 153 0 76
0.103811 -0.333125 -0.108897 76 0 153
-0.080331 -0.475709 -0.084414 76 0 153
-0.065283 0.038401 0.144293 0 127 127
-0.103740 -0.932622 -0.271323 153 0 76
0.016376 0.088328 0.242976 0 127 127
-0.049137 -0.142475 0.006175 76 0 153
-0.062586 0.152181 0.369187 0 127 127
-0.070008 -0.574872 -0.082197 76 0 153
-0.073800 -0.356484 -0.048395 76 0 153
0.087471 0.210620 0.500630 76 153 0
0.107489 0.375915 -0.003474 0 255 0
0.039236 -0.871161 -0.211201 153 0 76
0.133702 -0.090093 -0.156859 76 0 153
-0.026899 0.603801 0.519466 0 255 0
0.087471 0.194376 0.388161 0 127 127
0.044925 0.475269 -0.265969 0 255 0
0.095055 0.314893 0.010211 0 255 0
0.074689 0.469752 -0.253962 0 255 0
0.049902 0.165022 0.576246 76 153 0
0.093350 -0.148418 -0.216940 76 0 153
-0.103318 -0.893559 -0.008099 153 0 76
0.116894 0.462382 -0.218408 0 255 0
0.019732 0.011047 -0.256729 76 0 153
-0.063518 -0.092950 -0.014316 76 0 153
0.060284 -0.052367 -0.215075 76 0 153
0.059683 0.109746 -0.200586 76 0 153
0.037911 -0.173903 -0.218494 76 0 153
-0.023134 -0.889218 0.013489 153 0 76
0.057257 0.150022 -0.020677 0 255 0
-0.129730 -0.887536 -0.104661 153 0 76
-0.103101 0.150022 -0.109160 76 0 153
0.019330 -0.011767 -0.228968 76 0 153
0.067316 0.174077 0.186367 0 127 127
-0.065232 0.353946 -0.265053 0 255 0
0.146500 0.249353 -0.044085 0 255 0
-0.017668 -0.796604 -0.187907 76 0 153
-0.026899 0.549056 0.364151 0 255 0
0.168987 0.150022 -0.129691 0 255 0
-0.020220 0.150022 -0.074636 76 0 153
0.061828 0.282411 0.400457 0 127 127
-0.103108 -0.035382 -0.024513 76 0 153
-0.124916 -0.034584 -0.055953 76 0 153
0.079970 -0.092950 -0.144808 76 0 153
0.155639 -0.895035 -0.157785 153 0 76
0.134524 0.251004 -0.214142 0 255 0
-0.029718 0.554716 -0.086334 0 255 0
-0.097585 0.089658 -0.212374 76 0 153
-0.055551 -0.341896 -0.031367 76 0 153
-0.033224 0.109746 -0.138093 76 0 153
-0.055887 0.086586 -0.241489 76 0 153
0.022185 -0.173903 -0.132965 76 0 153
0.048003 0.066682 0.200188 0 127 127
-0.008286 0.028812 -0.234423 76 0 153
-0.019097 0.160289 0.159121 0 127 127
0.033088 -0.052367 -0.012358 0 127 127
-0.080255 0.160546 0.159628 0 127 127
0.086797 -0.323962 -0.181376 76 0 153
-0.068644 0.162389 0.403192 76 153 0
0.045185 -0.404331 -0.203838 76 0 153
0.013467 0.689409 0.402280 0 255 0
-0.026825 0.123814 -0.247093 76 0 153
0.025887 0.702043 0.571411 0 255 0
0.069025 0.554716 -0.014903 0 255 0
0.024726 -0.092950 -0.001483 76 0 153
-0.021215 -0.052367 -0.003611 0 127 127
-0.054629 -0.052367 -0.216611 76 0 153
0.051993 -0.173903 -0.013795 76 0 153
-0.107057 0.200441 0.009551 0 255 0
-0.107520 -0.880307 -0.158565 153 0 76
-0.059252 -0.042525 0.006820 76 0 153
-0.133443 0.150022 -0.111825 76 0 153
0.124397 -0.218126 -0.139350 76 0 153
0.038523 0.150022 0.005794 0 255 0
-0.000231 0.721342 0.532529 0 255 0
0.042900 -0.593211 -0.055488 76 0 153
-0.078314 0.294109 0.023813 0 255 0
0.036694 -0.575661 -0.189205 76 0 153
0.022645 0.554716 -0.093895 0 255 0
-0.060563 0.092080 -0.000322 76 0 153
0.010726 0.131256 0.101745 0 127 127
0.087471 0.166814 0.347228 0 127 127
-0.024890 -0.011767 -0.149934 76 0 153
0.021867 -0.695969 -0.188308 76 0 153
0.040045 0.126863 0.093063 0 127 127
-0.024310 0.057653 0.014517 76 0 153
-0.167646 0.229482 -0.120389 0 255 0
0.088327 -0.286147 -0.192562 76 0 153
-0.062567 -0.639816 -0.161227 76 0 153
-0.006794 0.588124 0.541423 0 255 0
0.115018 -0.142946 -0.048744 76 0 153
0.148775 0.299142 -0.056588 0 255 0
0.087471 0.015552 0.034055 0 127 127
-0.043446 -0.055017 -0.252609 76 0 153
0.013860 0.109746 -0.174996 76 0 153
0.087471 0.170908 0.484964 76 153 0
0.056996 -0.700043 -0.076548 76 0 153
0.112665 -0.279949 -0.090440 76 0 153
-0.006914 0.150022 -0.015550 0 255 0
0.152250 0.437200 -0.095409 0 255 0
0.000575 -0.052367 -0.103327 0 127 127
0.019939 -0.896266 0.048329 153 0 76
0.093150 0.251520 -0.255288 0 255 0
0.053419 0.257030 0.573547 76 153 0
0.082537 0.028812 -0.192865 76 0 153
-0.050700 0.141224 0.546658 76 153 0
0.023611 -0.023358 0.017673 0 127 127
0.035078 -0.534873 -0.045994 76 0 153
0.005375 -0.092950 -0.173056 76 0 153
-0.090060 0.511909 -0.240750 0 255 0
-0.068857 -0.516759 -0.167421 76 0 153
-0.109721 0.028812 -0.082097 76 0 153
-0.124291 -0.165780 -0.167634 76 0 153
0.106600 -0.957921 -0.268352 153 0 76
0.029964 -0.797090 -0.182699 76 0 153
-0.102390 -0.176428 -0.203163 76 0 153
-0.015692 0.141224 0.541287 76 153 0
0.006222 0.183665 0.205316 0 127 127
-0.065481 -0.133475 -0.102989 76 0 153
-0.010348 0.221672 0.280423 0 127 127
0.025887 0.571024 0.487680 0 255 0
-0.122038 0.187542 -0.237349 0 255 0
0.057753 -0.817725 -0.140461 76 0 153
-0.032522 -0.173903 -0.048245 76 0 153
-0.088483 0.097373 0.098026 0 127 127
-0.095716 0.554716 -0.163117 0 255 0
-0.029790 0.017707 0.103388 0 127 127
0.062531 -0.052367 -0.006345 76 0 153
-0.040751 0.148684 0.136186 0 127 127
-0.000932 0.538130 0.042728 0 255 0
0.083550 -0.173903 -0.190642 76 0 153
-0.049436 -0.763013 -0.170700 76 0 153
0.064457 -0.350911 -0.198757 76 0 153
0.072864 0.285268 0.026167 0 255 0
0.096451 0.223635 -0.254649 0 255 0
0.011742 -0.538446 -0.200138 76 0 153
0.059096 -0.528168 -0.177133 76 0 153
-0.089199 0.150022 -0.147644 0 255 0
-0.018199 0.479866 0.178860 0 255 0
-0.034197 0.150022 -0.227364 0 255 0
0.095289 -0.400529 -0.125521 76 0 153
0.093044 -0.281037 -0.051328 76 0 153
0.042145 0.554716 -0.239375 0 255 0
0.070546 0.150022 -0.092515 76 0 153
0.025887 0.502681 0.174725 0 255 0
0.121267 -0.173903 -0.106260 76 0 153
0.124903 0.478659 -0.032781 0 255 0
-0.003063 0.572511 0.200243 0 255 0
-0.030752 -0.549640 -0.194279 76 0 153
0.033835 -0.133475 -0.182977 76 0 153
0.018279 0.554716 -0.123295 0 255 0
0.044385 -0.507717 -0.191241 76 0 153
-0.005517 -0.486185 -0.033408 76 0 153
-0.033923 0.069330 -0.145612 76 0 153
0.087471 0.181784 0.446467 76 153 0
-0.035477 0.203355 0.044397 0 255 0
-0.101899 0.208027 -0.252304 0 255 0
-0.055453 -0.133475 -0.174766 76 0 153
-0.091807 -0.442565 -0.121549 76 0 153
-0.005750 0.247119 0.330712 0 127 127
0.154458 0.364149 -0.082030 0 255 0
-0.045424 -0.379915 -0.207503 76 0 153
0.088527 -0.229998 -0.208249 76 0 153
0.148694 0.160368 -0.036852 0 255 0
-0.000586 -0.173903 0.000068 76 0 153
0.106747 0.554087 -0.015795 0 255 0
0.147708 0.493826 -0.084286 0 255 0
0.006048 -0.092950 -0.235082 76 0 153
0.058015 0.030043 0.127766 0 127 127
0.113137 0.185157 0.005147 0 255 0
0.064144 0.109746 -0.079421 76 0 153
-0.114702 -0.274634 -0.090626 76 0 153
-0.088483 0.081063 0.211646 0 127 127
-0.008379 0.609470 0.318051 0 255 0
-0.021761 0.069330 -0.044844 0 127 127
0.025887 0.600685 0.525453 0 255 0
0.069472 0.525324 0.013572 0 255 0
0.081899 -0.432645 -0.160864 76 0 153
0.051971 0.148994 0.416140 76 153 0
0.039158 0.036176 0.012741 76 0 153
0.139372 0.411454 -0.049702 0 255 0
0.055950 -0.780495 -0.161078 76 0 153
0.087471 0.085509 0.177996 0 127 127
-0.129831 0.244922 -0.222115 0 255 0
0.108132 0.055776 -0.037418 76 0 153
-0.009691 -0.895890 0.046513 153 0 76
0.057835 -0.011767 -0.178093 76 0 153
-0.060667 -0.703980 -0.080207 76 0 153
0.025887 0.719196 0.444845 0 255 0
0.020726 0.137956 0.341071 0 127 127
0.014547 0.069330 -0.183253 76 0 153
-0.088483 0.100947 0.157128 0 127 127
0.059094 -0.850275 -0.065914 153 0 76
-0.129539 0.122876 -0.134757 76 0 153
-0.066233 0.171525 0.181324 0 127 127
-0.048603 0.069330 -0.094583 0 127 127
-0.064218 -0.173903 -0.147638 76 0 153
-0.070165 -0.173903 -0.115576 76 0 153
0.045828 0.069330 -0.104197 0 127 127
0.136067 -0.925585 -0.242561 153 0 76
-0.026899 0.511087 0.051982 0 255 0
0.025887 0.618648 0.454063 0 255 0
-0.003217 -0.802729 -0.049539 76 0 153
-0.139447 -0.008024 -0.108850 76 0 153
-0.026899 0.708088 0.437238 0 255 0
-0.117815 0.266200 -0.003420 0 255 0
0.087471 0.265120 0.417697 76 153 0
-0.115184 -0.092950 -0.099269 76 0 153
0.039816 0.504628 -0.266373 0 255 0
-0.008176 -0.791899 -0.120665 153 0 76
0.043723 0.028812 -0.226447 76 0 153
0.000724 0.588747 0.274629 0 255 0
0.134480 -0.129790 -0.103713 76 0 153
-0.116515 0.410316 -0.014482 0 255 0
0.025887 0.560856 0.237220 0 255 0
-0.099122 -0.052367 -0.183403 76 0 153
0.152703 -0.896253 -0.048053 153 0 76
-0.054194 0.150022 -0.143804 0 255 0
-0.001227 0.721342 0.476135 0 255 0
-0.015498 0.554716 -0.001596 0 255 0
-0.139095 -0.043232 -0.104891 76 0 153
0.017628 0.158769 0.382209 0 127 127
0.002999 -0.817725 -0.106960 153 0 76
0.163335 0.230764 -0.144922 0 255 0
-0.042918 0.141224 0.467814 76 153 0
-0.056399 0.028812 -0.053436 76 0 153
0.113776 -0.130458 -0.193914 76 0 153
-0.010104 0.422099 0.035849 0 255 0
-0.086079 -0.294957 -0.045243 76 0 153
-0.022953 0.028812 -0.071590 0 127 127
-0.085663 -0.499397 -0.116264 76 0 153
0.079174 -0.544087 -0.134619 76 0 153
0.061798 0.205750 -0.274699 0 255 0
-0.062714 -0.734937 -0.154515 76 0 153
-0.012602 -0.874283 -0.222881 153 0 76
-0.073001 -0.133475 -0.062611 76 0 153
-0.016987 0.158019 0.380725 0 127 127
0.018798 -0.934179 -0.301865 153 0 76
0.064742 0.221905 0.280884 0 127 127
0.027142 0.069330 -0.229809 76 0 153
-0.156362 0.417882 -0.128327 0 255 0
0.001402 0.459910 0.087427 0 255 0
-0.119279 0.343567 -0.012175 0 255 0
0.112120 -0.011767 -0.168963 76 0 153
0.062592 0.154928 0.374616 0 127 127
-0.062096 -0.552086 -0.067970 76 0 153
-0.145544 0.270597 -0.196986 0 255 0
0.119486 0.177422 -0.240112 0 255 0
0.099917 0.028812 -0.065108 76 0 153
-0.028184 -0.092950 -0.007743 76 0 153
0.057648 0.554716 -0.045407 0 255 0
-0.076072 0.422568 0.017250 0 255 0
0.001849 0.483761 0.196703 0 255 0
-0.130685 -0.121983 -0.077544 76 0 153
-0.050440 0.150022 -0.055129 76 0 153
0.129857 -0.086645 -0.072902 76 0 153
0.083033 -0.408395 -0.073754 76 0 153
0.182675 -0.898010 -0.107723 153 0 76
0.087471 0.048573 0.075559 0 127 127
0.025887 0.575511 0.289026 0 255 0
-0.035899 0.037722 0.142951 0 127 127
0.061383 -0.024997 0.005491 76 0 153
0.103470 0.125932 -0.196903 76 0 153
-0.091416 -0.116856 -0.017111 76 0 153
0.096918 -0.870787 -0.098773 153 0 76
-0.000568 0.529871 0.407958 0 255 0
-0.035680 0.078699 0.223945 0 127 127
0.124137 0.288867 -0.014984 0 255 0
0.071189 -0.458798 -0.066950 76 0 153
-0.021962 -0.533003 -0.039960 76 0 153
0.076840 -0.115587 -0.232704 76 0 153
0.012238 -0.882779 -0.001371 153 0 76
-0.035370 0.132508 0.330301 0 127 127
0.134217 -0.063102 -0.157700 76 0 153
0.079216 -0.173903 -0.136547 76 0 153
-0.044705 -0.885733 -0.002374 153 0 76
-0.129042 0.007857 -0.067668 76 0 153
0.068150 -0.631156 -0.089392 76 0 153
-0.093940 0.150022 -0.257124 0 255 0
0.089639 -0.377349 -0.159877 76 0 153
-0.028767 0.079291 -0.000947 0 127 127
0.087471 0.214047 0.407230 76 153 0
0.075267 -0.011767 -0.138159 76 0 153
0.132877 0.089443 -0.110151 76 0 153
0.043658 0.439718 0.029257 0 255 0
0.079431 0.471717 0.011549 0 255 0
0.072062 -0.092950 -0.075926 76 0 153
0.076749 -0.306238 -0.039378 76 0 153
-0.049267 0.554716 -0.239958 0 255 0
-0.071925 -0.457601 -0.066389 76 0 153
-0.055435 0.222457 -0.276780 0 255 0
0.030656 -0.929152 0.060994 153 0 76
0.024821 0.170604 0.179504 0 127 127
0.076373 0.150022 0.004546 0 255 0
0.019409 0.282709 0.401044 0 127 127
-0.012789 -0.209777 -0.246697 76 0 153
0.112742 0.436852 -0.226078 0 255 0
0.079661 -0.513999 -0.094858 76 0 153
0.017331 -0.036698 -0.257830 76 0 153
0.075406 -0.052367 -0.165655 76 0 153
0.030044 -0.011767 -0.008616 0 127 127
-0.014953 0.050840 0.168879 0 127 127
-0.014626 -0.173903 -0.219785 76 0 153
0.054364 -0.449289 -0.048319 76 0 153
0.127864 0.223285 -0.225275 0 255 0
-0.116187 0.554716 -0.120253 0 255 0
-0.066470 0.216692 0.033235 0 255 0
-0.147211 -0.955115 -0.009954 153 0 76
-0.096866 -0.144410 -0.215320 76 0 153
-0.006313 0.150022 0.043672 0 255 0
0.070271 0.554716 -0.222877 0 255 0
0.130136 0.287771 -0.216606 0 255 0
-0.035176 -0.011767 -0.053796 0 127 127
0.054756 -0.883562 -0.011994 153 0 76
0.025887 0.660777 0.562860 0 255 0
-0.026197 0.268303 0.588751 76 153 0
0.008672 0.332760 0.040760 0 255 0
-0.048747 -0.173903 -0.017372 76 0 153
0.131093 0.150022 -0.058342 0 255 0
0.028459 -0.052367 -0.212008 76 0 153
0.087139 0.290785 0.486344 76 153 0
0.017495 0.512609 0.029824 0 255 0
-0.026996 0.369174 0.036502 0 255 0
-0.009088 0.554716 -0.134544 0 255 0
0.080018 -0.011767 -0.032946 76 0 153
0.142231 0.443983 -0.178128 0 255 0
0.066727 0.239210 0.315082 0 127 127
-0.053368 -0.133475 -0.127781 76 0 153
-0.026899 0.702470 0.572604 0 255 0
-0.014184 0.048031 -0.121456 0 127 127
0.011274 0.150022 -0.085668 76 0 153
0.147681 0.328787 -0.058121 0 255 0
0.096877 0.126673 -0.033969 0 255 0
-0.072577 -0.887253 -0.227273 153 0 76
0.068109 0.146551 0.558842 76 153 0
-0.147042 0.334274 -0.054909 0 255 0
0.025887 0.477971 0.072452 0 255 0
0.069891 -0.901053 0.049448 153 0 76
0.058509 0.069330 -0.074786 0 127 127
0.047303 -0.011767 -0.066089 0 127 127
-0.181469 -0.958315 -0.148434 153 0 76
-0.093074 -0.318238 -0.062736 76 0 153
