0.334964 0.773866 0.079669 1.000000 0.000000 0.000000
0.319105 -0.789881 0.042457 1.000000 0.000000 0.000000
-0.189888 0.808695 -0.019863 0.300000 0.000000 0.600000
0.029582 -0.758909 -0.019863 0.300000 0.000000 0.600000
-0.084603 -0.107140 -0.016576 0.300000 0.000000 0.600000
-0.053665 0.670160 -0.016576 0.300000 0.000000 0.600000
0.345755 0.684891 -0.000094 1.000000 0.000000 0.000000
-0.363278 -0.548542 -0.031412 1.000000 0.000000 0.000000
-0.330265 -0.158208 0.004261 1.000000 0.000000 0.000000
-0.360338 -0.866051 -0.018531 1.000000 0.000000 0.000000
0.113875 -0.247526 -0.016576 0.300000 0.000000 0.600000
-0.129112 -0.403834 -0.016576 0.300000 0.000000 0.600000
-0.172408 0.372270 -0.019863 0.300000 0.000000 0.600000
0.284381 0.349747 -0.016576 0.300000 0.000000 0.600000
0.302030 -0.751379 -0.016576 0.300000 0.000000 0.600000
0.319105 0.046594 0.051668 1.000000 0.000000 0.000000
-0.337079 0.354921 0.079502 1.000000 0.000000 0.000000
-0.207118 -0.070960 -0.019863 0.300000 0.000000 0.600000
0.371516 -0.530860 0.080891 1.000000 0.000000 0.000000
0.173159 0.128600 -0.016576 0.300000 0.000000 0.600000
-0.342357 0.048989 -0.025819 1.000000 0.000000 0.000000
0.067868 0.837874 -0.018093 1.000000 0.000000 0.000000
-0.277732 -0.455322 -0.019863 0.300000 0.000000 0.600000
-0.275086 -0.560753 -0.016576 0.300000 0.000000 0.600000
-0.344681 -0.107406 -0.027097 1.000000 0.000000 0.000000
0.345755 -0.652521 0.057299 1.000000 0.000000 0.000000
-0.081296 0.839096 0.083972 1.000000 0.000000 0.000000
0.093547 -0.691998 -0.016576 0.300000 0.000000 0.600000
-0.074015 0.112762 -0.019863 0.300000 0.000000 0.600000
-0.261395 0.418597 -0.016576 0.300000 0.000000 0.600000
0.345755 -0.160212 0.032322 1.000000 0.000000 0.000000
0.353414 0.045000 -0.030075 1.000000 0.000000 0.000000
-0.348032 -0.788803 0.054131 1.000000 0.000000 0.000000
0.375958 0.702400 -0.026838 1.000000 0.000000 0.000000
0.155867 0.837874 0.019137 1.000000 0.000000 0.000000
-0.278924 0.015179 -0.016576 0.300000 0.000000 0.600000
-0.348032 0.214588 -0.011993 1.000000 0.000000 0.000000
0.319105 0.401931 0.016576 1.000000 0.000000 0.000000
0.258446 0.551469 -0.016576 0.300000 0.000000 0.600000
-0.053080 -0.901986 -0.019863 0.300000 0.000000 0.600000
0.218798 -0.380671 -0.016576 0.300000 0.000000 0.600000
0.070554 0.667003 -0.016576 0.300000 0.000000 0.600000
-0.322173 -0.421506 0.072967 1.000000 0.000000 0.000000
-0.079649 -0.385801 -0.016576 0.300000 0.000000 0.600000
0.285043 -0.536110 -0.019863 0.300000 0.000000 0.600000
-0.321382 0.641470 0.047017 1.000000 0.000000 0.000000
-0.032969 0.318499 -0.019863 0.300000 0.000000 0.600000
-0.321382 -0.560004 0.032459 1.000000 0.000000 0.000000
-0.262081 -0.293671 -0.016576 0.300000 0.000000 0.600000
0.321143 -0.668226 0.012561 1.000000 0.000000 0.000000
0.021817 0.247031 -0.016576 0.300000 0.000000 0.600000
-0.231535 -0.440771 -0.019863 0.300000 0.000000 0.600000
0.231759 0.058248 -0.016576 0.300000 0.000000 0.600000
-0.348032 -0.201693 0.068877 1.000000 0.000000 0.000000
-0.288434 -0.012724 -0.019863 0.300000 0.000000 0.600000
0.114869 -0.611848 -0.016576 0.300000 0.000000 0.600000
-0.378235 -0.729366 -0.021521 1.000000 0.000000 0.000000
-0.349953 -0.278691 -0.028526 1.000000 0.000000 0.000000
-0.369945 0.487697 -0.018531 1.000000 0.000000 0.000000
0.327988 -0.699392 -0.003995 1.000000 0.000000 0.000000
0.210978 0.581330 -0.019863 0.300000 0.000000 0.600000
0.320473 -0.260796 -0.019863 0.300000 0.000000 0.600000
0.361854 0.304637 0.085848 1.000000 0.000000 0.000000
0.272460 -0.254041 -0.019863 0.300000 0.000000 0.600000
0.354610 -0.198762 -0.018531 1.000000 0.000000 0.000000
-0.307796 -0.573359 -0.016576 0.300000 0.000000 0.600000
0.041671 0.252552 -0.016576 0.300000 0.000000 0.600000
0.319105 -0.602106 0.067168 1.000000 0.000000 0.000000
0.008283 0.855931 0.072967 1.000000 0.000000 0.000000
-0.330265 0.217683 -0.008622 1.000000 0.000000 0.000000
-0.246719 -0.197909 -0.019863 0.300000 0.000000 0.600000
0.325198 -0.548010 0.072967 1.000000 0.000000 0.000000
0.345755 0.064887 0.026269 1.000000 0.000000 0.000000
0.121593 0.002489 -0.016576 0.300000 0.000000 0.600000
-0.131491 0.684342 -0.019863 0.300000 0.000000 0.600000
-0.369923 -0.287373 0.072967 1.000000 0.000000 0.000000
0.184059 -0.014362 -0.019863 0.300000 0.000000 0.600000
-0.378172 0.153570 -0.031412 1.000000 0.000000 0.000000
-0.217693 0.837874 0.064925 1.000000 0.000000 0.000000
-0.076568 0.811224 0.038994 1.000000 0.000000 0.000000
0.375958 0.804399 -0.021117 1.000000 0.000000 0.000000
-0.355784 0.220690 0.072967 1.000000 0.000000 0.000000
-0.370413 -0.475379 -0.018531 1.000000 0.000000 0.000000
0.350039 -0.781135 0.072967 1.000000 0.000000 0.000000
-0.129921 -0.576902 -0.019863 0.300000 0.000000 0.600000
0.327988 -0.533766 0.000654 1.000000 0.000000 0.000000
0.345755 -0.161551 0.067512 1.000000 0.000000 0.000000
-0.017529 0.423636 -0.019863 0.300000 0.000000 0.600000
-0.334707 0.759501 0.073870 1.000000 0.000000 0.000000
-0.368721 0.386102 0.085848 1.000000 0.000000 0.000000
-0.355298 0.772319 -0.018531 1.000000 0.000000 0.000000
-0.348032 -0.896801 0.021176 1.000000 0.000000 0.000000
0.018943 -0.440891 -0.019863 0.300000 0.000000 0.600000
-0.260861 -0.661415 -0.016576 0.300000 0.000000 0.600000
0.043296 -0.710276 -0.019863 0.300000 0.000000 0.600000
0.081826 0.785425 -0.016576 0.300000 0.000000 0.600000
-0.092188 0.827865 0.080332 1.000000 0.000000 0.000000
-0.062903 0.016219 -0.016576 0.300000 0.000000 0.600000
-0.271244 0.837874 0.056209 1.000000 0.000000 0.000000
-0.089676 -0.333438 -0.016576 0.300000 0.000000 0.600000
0.319105 -0.342450 0.058878 1.000000 0.000000 0.000000
-0.064386 0.820107 -0.000750 1.000000 0.000000 0.000000
-0.373793 -0.897252 0.074283 1.000000 0.000000 0.000000
0.359371 -0.030160 0.085848 1.000000 0.000000 0.000000
-0.067848 -0.624335 -0.019863 0.300000 0.000000 0.600000
-0.336681 0.334943 0.079066 1.000000 0.000000 0.000000
0.182613 -0.323009 -0.016576 0.300000 0.000000 0.600000
0.310687 -0.160986 -0.019863 0.300000 0.000000 0.600000
0.210156 0.281554 -0.019863 0.300000 0.000000 0.600000
0.101628 0.675844 -0.019863 0.300000 0.000000 0.600000
0.275520 -0.909242 -0.019863 0.300000 0.000000 0.600000
0.317253 -0.546969 -0.019863 0.300000 0.000000 0.600000
0.321964 0.566604 0.012561 1.000000 0.000000 0.000000
0.275027 -0.679331 -0.019863 0.300000 0.000000 0.600000
-0.069044 -0.676461 -0.016576 0.300000 0.000000 0.600000
0.025763 0.583590 -0.016576 0.300000 0.000000 0.600000
-0.311321 0.301195 -0.016576 0.300000 0.000000 0.600000
-0.349762 0.673551 0.072967 1.000000 0.000000 0.000000
-0.040033 -0.459199 -0.016576 0.300000 0.000000 0.600000
0.345755 -0.292152 0.060206 1.000000 0.000000 0.000000
0.205764 0.678548 -0.019863 0.300000 0.000000 0.600000
0.179796 0.811224 0.053489 1.000000 0.000000 0.000000
-0.288905 0.639711 -0.019863 0.300000 0.000000 0.600000
0.319105 -0.372169 0.052973 1.000000 0.000000 0.000000
0.333543 -0.282673 0.077836 1.000000 0.000000 0.000000
0.336871 -0.113629 -0.018811 1.000000 0.000000 0.000000
-0.275742 -0.675085 -0.019863 0.300000 0.000000 0.600000
0.319105 -0.764818 0.032494 1.000000 0.000000 0.000000
0.333661 -0.297658 0.078042 1.000000 0.000000 0.000000
0.008675 0.863239 -0.018531 1.000000 0.000000 0.000000
-0.348032 0.174151 0.034043 1.000000 0.000000 0.000000
0.020601 -0.188329 -0.019863 0.300000 0.000000 0.600000
-0.348032 -0.706297 0.067309 1.000000 0.000000 0.000000
0.154160 -0.750762 -0.019863 0.300000 0.000000 0.600000
0.368075 0.255196 -0.031412 1.000000 0.000000 0.000000
-0.348032 0.517839 -0.012824 1.000000 0.000000 0.000000
0.329969 0.600373 -0.018531 1.000000 0.000000 0.000000
-0.019894 -0.611182 -0.019863 0.300000 0.000000 0.600000
0.190820 0.640725 -0.016576 0.300000 0.000000 0.600000
0.240146 0.851826 0.085848 1.000000 0.000000 0.000000
0.174078 0.054770 -0.019863 0.300000 0.000000 0.600000
0.206120 0.368273 -0.019863 0.300000 0.000000 0.600000
0.245408 0.630190 -0.016576 0.300000 0.000000 0.600000
-0.372778 0.798465 0.085848 1.000000 0.000000 0.000000
-0.330265 0.594852 0.009843 1.000000 0.000000 0.000000
0.152489 0.373152 -0.016576 0.300000 0.000000 0.600000
-0.102134 0.046376 -0.019863 0.300000 0.000000 0.600000
0.133916 0.051711 -0.019863 0.300000 0.000000 0.600000
-0.103513 -0.322457 -0.016576 0.300000 0.000000 0.600000
0.052740 0.858412 -0.018531 1.000000 0.000000 0.000000
-0.378235 -0.522119 -0.030303 1.000000 0.000000 0.000000
0.371475 0.766679 -0.031412 1.000000 0.000000 0.000000
-0.090243 -0.055616 -0.016576 0.300000 0.000000 0.600000
-0.358032 -0.313834 0.085848 1.000000 0.000000 0.000000
0.345755 0.015411 0.061534 1.000000 0.000000 0.000000
-0.177627 -0.556022 -0.016576 0.300000 0.000000 0.600000
0.358289 0.855011 0.072967 1.000000 0.000000 0.000000
-0.378235 -0.051870 -0.026744 1.000000 0.000000 0.000000
-0.321382 0.035983 0.051763 1.000000 0.000000 0.000000
-0.025107 0.087896 -0.016576 0.300000 0.000000 0.600000
0.359055 0.798424 0.085848 1.000000 0.000000 0.000000
-0.339148 0.769105 -0.019438 1.000000 0.000000 0.000000
0.074435 0.768437 -0.016576 0.300000 0.000000 0.600000
0.255874 0.719179 -0.016576 0.300000 0.000000 0.600000
-0.348032 -0.049744 0.041176 1.000000 0.000000 0.000000
0.059124 0.367009 -0.019863 0.300000 0.000000 0.600000
-0.042184 -0.370614 -0.019863 0.300000 0.000000 0.600000
0.295781 -0.462084 -0.016576 0.300000 0.000000 0.600000
0.047728 -0.339588 -0.019863 0.300000 0.000000 0.600000
-0.374716 0.617251 -0.018531 1.000000 0.000000 0.000000
0.174614 0.812449 0.012561 1.000000 0.000000 0.000000
0.232604 -0.909657 -0.019863 0.300000 0.000000 0.600000
-0.252878 0.272985 -0.019863 0.300000 0.000000 0.600000
0.316771 0.647171 -0.016576 0.300000 0.000000 0.600000
0.345755 -0.272276 -0.002737 1.000000 0.000000 0.000000
0.312593 0.837874 0.026235 1.000000 0.000000 0.000000
-0.348032 -0.437131 0.042912 1.000000 0.000000 0.000000
0.328809 0.671051 -0.019863 0.300000 0.000000 0.600000
-0.330265 0.411383 -0.016708 1.000000 0.000000 0.000000
0.318509 0.747773 -0.019863 0.300000 0.000000 0.600000
-0.081826 -0.894075 -0.019863 0.300000 0.000000 0.600000
-0.339063 0.853294 0.072967 1.000000 0.000000 0.000000
0.113206 -0.874365 -0.016576 0.300000 0.000000 0.600000
0.359758 -0.516194 0.085848 1.000000 0.000000 0.000000
-0.118115 0.851046 -0.031412 1.000000 0.000000 0.000000
0.222385 0.652726 -0.016576 0.300000 0.000000 0.600000
-0.169801 0.518784 -0.019863 0.300000 0.000000 0.600000
-0.317612 0.601059 -0.019863 0.300000 0.000000 0.600000
0.078619 0.598040 -0.019863 0.300000 0.000000 0.600000
0.345755 -0.655843 -0.012575 1.000000 0.000000 0.000000
0.329231 0.308005 -0.016576 0.300000 0.000000 0.600000
-0.358712 -0.604131 0.072967 1.000000 0.000000 0.000000
-0.307754 0.116476 -0.016576 0.300000 0.000000 0.600000
-0.075342 -0.029115 -0.016576 0.300000 0.000000 0.600000
0.359180 -0.335779 -0.018531 1.000000 0.000000 0.000000
-0.161224 0.587822 -0.019863 0.300000 0.000000 0.600000
-0.209648 -0.235658 -0.019863 0.300000 0.000000 0.600000
0.319105 0.755010 0.069347 1.000000 0.000000 0.000000
-0.330834 0.847167 -0.018531 1.000000 0.000000 0.000000
0.011372 0.622610 -0.016576 0.300000 0.000000 0.600000
0.300284 0.213206 -0.016576 0.300000 0.000000 0.600000
0.319105 0.687416 0.022287 1.000000 0.000000 0.000000
0.029225 0.204318 -0.019863 0.300000 0.000000 0.600000
-0.326153 0.019999 0.072967 1.000000 0.000000 0.000000
-0.158887 0.809335 -0.016576 0.300000 0.000000 0.600000
-0.093632 0.438782 -0.019863 0.300000 0.000000 0.600000
-0.230856 -0.075726 -0.016576 0.300000 0.000000 0.600000
0.327988 0.168104 -0.002218 1.000000 0.000000 0.000000
0.327988 -0.207998 0.009569 1.000000 0.000000 0.000000
-0.023490 0.765979 -0.019863 0.300000 0.000000 0.600000
0.325007 -0.954778 0.059071 1.000000 0.000000 0.000000
-0.165786 0.814169 0.072967 1.000000 0.000000 0.000000
0.306902 -0.203501 -0.016576 0.300000 0.000000 0.600000
0.371184 -0.048555 0.072967 1.000000 0.000000 0.000000
0.363853 -0.835300 0.072967 1.000000 0.000000 0.000000
0.154157 -0.338651 -0.016576 0.300000 0.000000 0.600000
0.250483 -0.629476 -0.019863 0.300000 0.000000 0.600000
0.098114 0.811224 0.065205 1.000000 0.000000 0.000000
0.322781 -0.877887 -0.016576 0.300000 0.000000 0.600000
-0.321382 -0.876899 0.041331 1.000000 0.000000 0.000000
0.345755 0.530172 -0.007722 1.000000 0.000000 0.000000
-0.348032 -0.299016 0.038948 1.000000 0.000000 0.000000
-0.099943 0.785632 -0.019863 0.300000 0.000000 0.600000
-0.044194 -0.953806 -0.019863 0.300000 0.000000 0.600000
-0.055724 -0.249055 -0.016576 0.300000 0.000000 0.600000
0.178403 -0.160178 -0.016576 0.300000 0.000000 0.600000
0.265971 0.810630 -0.019863 0.300000 0.000000 0.600000
0.199031 -0.296663 -0.019863 0.300000 0.000000 0.600000
-0.348032 0.797444 0.007757 1.000000 0.000000 0.000000
-0.348032 0.091447 0.054539 1.000000 0.000000 0.000000
-0.359558 0.041748 0.085848 1.000000 0.000000 0.000000
0.276452 -0.300555 -0.019863 0.300000 0.000000 0.600000
0.277024 0.215499 -0.019863 0.300000 0.000000 0.600000
-0.378235 0.120631 -0.023202 1.000000 0.000000 0.000000
-0.362696 -0.182565 -0.031412 1.000000 0.000000 0.000000
-0.366100 0.487980 0.072967 1.000000 0.000000 0.000000
0.339036 -0.932711 0.081830 1.000000 0.000000 0.000000
0.009074 0.195637 -0.019863 0.300000 0.000000 0.600000
-0.249634 0.332742 -0.019863 0.300000 0.000000 0.600000
-0.314939 -0.811244 -0.016576 0.300000 0.000000 0.600000
-0.348032 -0.252167 -0.003990 1.000000 0.000000 0.000000
-0.330925 0.721264 -0.016576 0.300000 0.000000 0.600000
0.345755 0.207602 -0.014282 1.000000 0.000000 0.000000
-0.348032 -0.122740 0.030116 1.000000 0.000000 0.000000
-0.162828 0.305955 -0.016576 0.300000 0.000000 0.600000
-0.128849 0.812998 0.012561 1.000000 0.000000 0.000000
0.358166 -0.473857 0.085848 1.000000 0.000000 0.000000
0.354700 -0.572342 -0.030422 1.000000 0.000000 0.000000
0.354245 0.338334 0.085848 1.000000 0.000000 0.000000
-0.202318 -0.381613 -0.016576 0.300000 0.000000 0.600000
0.360351 -0.884895 -0.031412 1.000000 0.000000 0.000000
0.319105 0.142097 0.036227 1.000000 0.000000 0.000000
0.345755 0.245259 0.016086 1.000000 0.000000 0.000000
-0.364229 -0.414943 0.085848 1.000000 0.000000 0.000000
0.205967 -0.710463 -0.019863 0.300000 0.000000 0.600000
-0.226405 -0.089151 -0.019863 0.300000 0.000000 0.600000
0.022236 0.008582 -0.019863 0.300000 0.000000 0.600000
-0.363224 -0.378897 -0.031412 1.000000 0.000000 0.000000
-0.356390 0.023961 0.085848 1.000000 0.000000 0.000000
-0.348032 0.032143 0.020310 1.000000 0.000000 0.000000
-0.348032 0.346926 0.045325 1.000000 0.000000 0.000000
-0.135745 0.288077 -0.019863 0.300000 0.000000 0.600000
-0.330265 0.694505 -0.004438 1.000000 0.000000 0.000000
0.081053 0.850389 -0.018531 1.000000 0.000000 0.000000
0.339180 -0.743506 0.081869 1.000000 0.000000 0.000000
0.367271 -0.791524 -0.031412 1.000000 0.000000 0.000000
-0.348032 -0.726905 0.058658 1.000000 0.000000 0.000000
-0.321382 0.730585 0.040205 1.000000 0.000000 0.000000
0.223693 -0.836024 -0.016576 0.300000 0.000000 0.600000
-0.362551 0.593073 0.072967 1.000000 0.000000 0.000000
0.094927 -0.518662 -0.019863 0.300000 0.000000 0.600000
-0.359496 -0.336920 -0.031101 1.000000 0.000000 0.000000
-0.332563 -0.136018 0.072967 1.000000 0.000000 0.000000
-0.090700 0.861123 -0.018531 1.000000 0.000000 0.000000
0.369223 -0.490441 0.085848 1.000000 0.000000 0.000000
0.352705 0.491534 0.085518 1.000000 0.000000 0.000000
-0.373793 -0.481553 0.082884 1.000000 0.000000 0.000000
0.312495 -0.829974 -0.016576 0.300000 0.000000 0.600000
-0.330890 -0.953040 -0.018531 1.000000 0.000000 0.000000
0.267081 -0.466424 -0.016576 0.300000 0.000000 0.600000
0.371516 -0.325839 0.076653 1.000000 0.000000 0.000000
-0.330170 -0.673414 -0.016576 0.300000 0.000000 0.600000
0.371579 -0.237356 -0.031412 1.000000 0.000000 0.000000
-0.261056 -0.908090 -0.019863 0.300000 0.000000 0.600000
0.217595 0.857464 0.072967 1.000000 0.000000 0.000000
-0.021949 0.468734 -0.016576 0.300000 0.000000 0.600000
-0.136694 0.305541 -0.016576 0.300000 0.000000 0.600000
0.263177 0.641566 -0.016576 0.300000 0.000000 0.600000
-0.344888 0.689679 0.082794 1.000000 0.000000 0.000000
0.201981 -0.632217 -0.016576 0.300000 0.000000 0.600000
0.319105 0.199865 0.031142 1.000000 0.000000 0.000000
0.303733 0.867797 -0.031412 1.000000 0.000000 0.000000
-0.230191 -0.316237 -0.019863 0.300000 0.000000 0.600000
0.345343 0.804767 -0.027897 1.000000 0.000000 0.000000
0.375958 0.615564 -0.023978 1.000000 0.000000 0.000000
-0.369182 0.565155 0.072967 1.000000 0.000000 0.000000
0.208251 0.545455 -0.019863 0.300000 0.000000 0.600000
-0.028430 0.821883 -0.018706 0.300000 0.000000 0.600000
0.262731 0.375073 -0.016576 0.300000 0.000000 0.600000
0.375958 -0.145783 -0.019014 1.000000 0.000000 0.000000
0.143627 0.410526 -0.019863 0.300000 0.000000 0.600000
0.200847 0.381705 -0.019863 0.300000 0.000000 0.600000
-0.140836 0.330992 -0.019863 0.300000 0.000000 0.600000
0.319105 -0.659491 0.034576 1.000000 0.000000 0.000000
-0.004214 -0.359725 -0.019863 0.300000 0.000000 0.600000
-0.099916 0.753549 -0.019863 0.300000 0.000000 0.600000
0.362576 -0.612137 -0.031412 1.000000 0.000000 0.000000
-0.109385 -0.550404 -0.019863 0.300000 0.000000 0.600000
-0.338221 -0.661301 -0.018531 1.000000 0.000000 0.000000
0.319105 -0.009992 0.043754 1.000000 0.000000 0.000000
-0.077997 0.811224 0.066601 1.000000 0.000000 0.000000
-0.321382 0.337127 0.035395 1.000000 0.000000 0.000000
-0.070843 -0.277634 -0.019863 0.300000 0.000000 0.600000
0.312894 -0.782503 -0.016576 0.300000 0.000000 0.600000
0.312622 -0.059137 -0.016576 0.300000 0.000000 0.600000
-0.349545 0.523558 0.084051 1.000000 0.000000 0.000000
0.319304 0.065199 0.012561 1.000000 0.000000 0.000000
-0.371019 -0.417263 -0.018531 1.000000 0.000000 0.000000
0.340177 0.291593 -0.025888 1.000000 0.000000 0.000000
0.319384 -0.725746 0.072967 1.000000 0.000000 0.000000
-0.232570 -0.929377 -0.016576 0.300000 0.000000 0.600000
0.253964 0.225766 -0.016576 0.300000 0.000000 0.600000
0.090555 -0.416056 -0.019863 0.300000 0.000000 0.600000
-0.208824 -0.099343 -0.016576 0.300000 0.000000 0.600000
0.227904 0.385533 -0.016576 0.300000 0.000000 0.600000
0.109798 0.201221 -0.019863 0.300000 0.000000 0.600000
0.319105 0.419305 0.014543 1.000000 0.000000 0.000000
0.345755 0.517000 0.018305 1.000000 0.000000 0.000000
0.354323 -0.009480 -0.030320 1.000000 0.000000 0.000000
0.345755 0.184597 0.005352 1.000000 0.000000 0.000000
-0.321382 -0.199898 0.048761 1.000000 0.000000 0.000000
-0.202409 0.351321 -0.019863 0.300000 0.000000 0.600000
-0.328069 -0.783902 -0.019863 0.300000 0.000000 0.600000
-0.147686 0.034919 -0.016576 0.300000 0.000000 0.600000
-0.148176 0.837874 0.061400 1.000000 0.000000 0.000000
-0.280664 0.225339 -0.019863 0.300000 0.000000 0.600000
-0.018335 0.277864 -0.019863 0.300000 0.000000 0.600000
-0.122436 -0.107379 -0.019863 0.300000 0.000000 0.600000
-0.137278 0.180545 -0.016576 0.300000 0.000000 0.600000
-0.136972 0.125234 -0.016576 0.300000 0.000000 0.600000
0.324901 -0.698732 0.012561 1.000000 0.000000 0.000000
0.363554 0.039433 -0.018531 1.000000 0.000000 0.000000
0.246584 0.844404 0.072967 1.000000 0.000000 0.000000
0.230448 -0.627929 -0.019863 0.300000 0.000000 0.600000
-0.062604 -0.043690 -0.019863 0.300000 0.000000 0.600000
0.345755 0.170170 -0.002617 1.000000 0.000000 0.000000
-0.341983 0.328548 -0.025497 1.000000 0.000000 0.000000
0.155748 0.516606 -0.019863 0.300000 0.000000 0.600000
-0.284022 0.668545 -0.019863 0.300000 0.000000 0.600000
-0.248734 0.209318 -0.016576 0.300000 0.000000 0.600000
-0.360456 0.201039 0.072967 1.000000 0.000000 0.000000
0.319105 0.115688 0.040450 1.000000 0.000000 0.000000
0.356594 -0.826879 -0.030932 1.000000 0.000000 0.000000
0.353150 0.821245 0.085637 1.000000 0.000000 0.000000
0.169073 -0.249743 -0.016576 0.300000 0.000000 0.600000
-0.330265 -0.015432 0.002401 1.000000 0.000000 0.000000
0.327988 0.476300 -0.012355 1.000000 0.000000 0.000000
-0.056789 0.471109 -0.019863 0.300000 0.000000 0.600000
-0.281014 -0.282017 -0.019863 0.300000 0.000000 0.600000
0.375958 0.739259 -0.021186 1.000000 0.000000 0.000000
-0.361477 0.304875 -0.031412 1.000000 0.000000 0.000000
0.319105 -0.643299 0.027195 1.000000 0.000000 0.000000
-0.002310 0.724673 -0.019863 0.300000 0.000000 0.600000
0.242926 0.084038 -0.016576 0.300000 0.000000 0.600000
-0.280005 -0.762134 -0.016576 0.300000 0.000000 0.600000
0.371516 0.614607 0.075082 1.000000 0.000000 0.000000
-0.321382 -0.441451 0.023524 1.000000 0.000000 0.000000
0.305866 -0.627372 -0.019863 0.300000 0.000000 0.600000
-0.350002 0.126043 0.084174 1.000000 0.000000 0.000000
0.061325 0.837874 0.015257 1.000000 0.000000 0.000000
0.112066 -0.290257 -0.019863 0.300000 0.000000 0.600000
-0.366991 0.809628 -0.031412 1.000000 0.000000 0.000000
0.196680 -0.396703 -0.016576 0.300000 0.000000 0.600000
0.332568 0.580904 0.075230 1.000000 0.000000 0.000000
0.319105 -0.553551 0.018182 1.000000 0.000000 0.000000
-0.263839 -0.193869 -0.019863 0.300000 0.000000 0.600000
-0.360048 0.761914 0.085848 1.000000 0.000000 0.000000
0.319105 0.389206 0.042363 1.000000 0.000000 0.000000
-0.361847 -0.516535 -0.031412 1.000000 0.000000 0.000000
-0.370947 0.662996 -0.031412 1.000000 0.000000 0.000000
-0.112396 -0.858676 -0.019863 0.300000 0.000000 0.600000
0.327988 -0.045552 0.000482 1.000000 0.000000 0.000000
-0.248211 -0.226489 -0.016576 0.300000 0.000000 0.600000
-0.348032 0.064777 0.070657 1.000000 0.000000 0.000000
-0.236365 -0.003456 -0.016576 0.300000 0.000000 0.600000
0.196695 -0.685398 -0.016576 0.300000 0.000000 0.600000
-0.332042 0.259165 -0.019308 0.300000 0.000000 0.600000
-0.163234 0.742350 -0.019863 0.300000 0.000000 0.600000
-0.378235 -0.578122 -0.029158 1.000000 0.000000 0.000000
-0.190977 -0.598184 -0.016576 0.300000 0.000000 0.600000
0.247351 -0.114961 -0.016576 0.300000 0.000000 0.600000
-0.348032 0.437712 0.017749 1.000000 0.000000 0.000000
0.290485 -0.041740 -0.019863 0.300000 0.000000 0.600000
0.224597 0.338200 -0.016576 0.300000 0.000000 0.600000
0.216028 -0.001100 -0.016576 0.300000 0.000000 0.600000
0.364182 -0.863254 -0.031412 1.000000 0.000000 0.000000
-0.282648 -0.587829 -0.016576 0.300000 0.000000 0.600000
0.223069 -0.121214 -0.016576 0.300000 0.000000 0.600000
0.361735 0.690929 -0.031412 1.000000 0.000000 0.000000
-0.069601 0.508678 -0.019863 0.300000 0.000000 0.600000
-0.363512 -0.679868 0.072967 1.000000 0.000000 0.000000
0.361620 0.585614 -0.031412 1.000000 0.000000 0.000000
-0.274307 0.826193 -0.018531 1.000000 0.000000 0.000000
-0.057450 -0.856147 -0.019863 0.300000 0.000000 0.600000
0.345755 -0.076768 0.032984 1.000000 0.000000 0.000000
0.000104 -0.402073 -0.019863 0.300000 0.000000 0.600000
0.375958 -0.634876 -0.024904 1.000000 0.000000 0.000000
-0.321382 0.081036 0.067964 1.000000 0.000000 0.000000
-0.346061 -0.751288 -0.027476 1.000000 0.000000 0.000000
-0.245764 -0.452857 -0.016576 0.300000 0.000000 0.600000
-0.371829 -0.331345 0.072967 1.000000 0.000000 0.000000
-0.363871 0.464958 -0.018531 1.000000 0.000000 0.000000
0.345755 -0.729940 0.017221 1.000000 0.000000 0.000000
-0.319214 -0.147885 -0.016576 0.300000 0.000000 0.600000
0.305308 0.185219 -0.019863 0.300000 0.000000 0.600000
-0.190899 -0.534357 -0.019863 0.300000 0.000000 0.600000
-0.355104 0.747515 -0.029916 1.000000 0.000000 0.000000
0.344755 0.656564 -0.027739 1.000000 0.000000 0.000000
0.331652 0.489358 0.072967 1.000000 0.000000 0.000000
-0.333383 -0.442386 0.072967 1.000000 0.000000 0.000000
0.356343 -0.840641 0.085848 1.000000 0.000000 0.000000
0.237231 -0.731209 -0.019863 0.300000 0.000000 0.600000
-0.359149 -0.364901 -0.031007 1.000000 0.000000 0.000000
-0.348032 0.152568 -0.002588 1.000000 0.000000 0.000000
0.359951 -0.086085 0.072967 1.000000 0.000000 0.000000
-0.165346 -0.734716 -0.016576 0.300000 0.000000 0.600000
0.288384 0.114913 -0.016576 0.300000 0.000000 0.600000
-0.321382 0.679868 0.016494 1.000000 0.000000 0.000000
-0.318022 0.629342 -0.016576 0.300000 0.000000 0.600000
-0.331082 0.796264 -0.018531 1.000000 0.000000 0.000000
0.035604 0.181427 -0.019863 0.300000 0.000000 0.600000
-0.321382 0.786796 0.036275 1.000000 0.000000 0.000000
-0.198233 -0.759903 -0.016576 0.300000 0.000000 0.600000
-0.348032 0.702051 -0.017128 1.000000 0.000000 0.000000
0.340077 -0.381268 -0.025817 1.000000 0.000000 0.000000
-0.348032 0.486156 0.020433 1.000000 0.000000 0.000000
0.269412 0.824701 -0.018531 1.000000 0.000000 0.000000
-0.004268 -0.067843 -0.016576 0.300000 0.000000 0.600000
-0.323164 0.675255 0.072967 1.000000 0.000000 0.000000
0.345755 0.098957 0.047958 1.000000 0.000000 0.000000
-0.280807 -0.327097 -0.019863 0.300000 0.000000 0.600000
0.366746 0.333057 -0.031412 1.000000 0.000000 0.000000
-0.120604 0.517722 -0.019863 0.300000 0.000000 0.600000
-0.212080 -0.203663 -0.019863 0.300000 0.000000 0.600000
0.319105 0.538906 0.043243 1.000000 0.000000 0.000000
0.270910 -0.366619 -0.016576 0.300000 0.000000 0.600000
0.277341 0.191077 -0.016576 0.300000 0.000000 0.600000
0.353829 0.442773 0.085821 1.000000 0.000000 0.000000
0.319105 0.657586 0.059842 1.000000 0.000000 0.000000
0.007841 0.744253 -0.016576 0.300000 0.000000 0.600000
0.371516 0.803812 0.076412 1.000000 0.000000 0.000000
-0.068457 -0.905971 -0.019863 0.300000 0.000000 0.600000
-0.371135 -0.086778 0.085848 1.000000 0.000000 0.000000
0.358580 -0.637824 0.085848 1.000000 0.000000 0.000000
0.217021 0.792575 -0.016576 0.300000 0.000000 0.600000
0.006895 -0.141037 -0.019863 0.300000 0.000000 0.600000
0.345755 -0.307087 -0.015408 1.000000 0.000000 0.000000
0.235059 0.307011 -0.019863 0.300000 0.000000 0.600000
0.216624 0.445748 -0.019863 0.300000 0.000000 0.600000
-0.348032 0.324679 0.063344 1.000000 0.000000 0.000000
-0.330265 -0.856093 -0.008195 1.000000 0.000000 0.000000
-0.330265 -0.189693 0.006957 1.000000 0.000000 0.000000
-0.162617 0.227682 -0.016576 0.300000 0.000000 0.600000
-0.088365 0.402780 -0.016576 0.300000 0.000000 0.600000
-0.130881 -0.914203 -0.016576 0.300000 0.000000 0.600000
0.327988 0.583361 0.008643 1.000000 0.000000 0.000000
-0.274779 0.837874 0.018719 1.000000 0.000000 0.000000
0.327980 -0.936192 -0.019863 0.300000 0.000000 0.600000
0.315437 -0.340626 -0.016576 0.300000 0.000000 0.600000
-0.354170 0.793857 0.072967 1.000000 0.000000 0.000000
-0.349358 -0.147200 -0.028366 1.000000 0.000000 0.000000
0.043696 0.863635 0.081980 1.000000 0.000000 0.000000
-0.137512 0.066525 -0.016576 0.300000 0.000000 0.600000
0.139149 0.839718 -0.018531 1.000000 0.000000 0.000000
0.114339 0.635728 -0.016576 0.300000 0.000000 0.600000
-0.321382 -0.829672 0.066115 1.000000 0.000000 0.000000
-0.062793 0.800000 -0.019863 0.300000 0.000000 0.600000
-0.335083 0.590235 0.076170 1.000000 0.000000 0.000000
0.002507 0.045676 -0.019863 0.300000 0.000000 0.600000
0.346824 0.162070 -0.028297 1.000000 0.000000 0.000000
-0.366412 0.346565 -0.031412 1.000000 0.000000 0.000000
-0.359187 -0.093064 0.072967 1.000000 0.000000 0.000000
-0.173763 0.848568 -0.018531 1.000000 0.000000 0.000000
0.362442 0.519684 0.072967 1.000000 0.000000 0.000000
0.345755 -0.812032 0.059870 1.000000 0.000000 0.000000
-0.144942 0.757578 -0.016576 0.300000 0.000000 0.600000
-0.321382 0.162490 0.058729 1.000000 0.000000 0.000000
0.300105 -0.314036 -0.019863 0.300000 0.000000 0.600000
0.054170 -0.850657 -0.016576 0.300000 0.000000 0.600000
0.174078 -0.264336 -0.016576 0.300000 0.000000 0.600000
0.313640 -0.600377 -0.016576 0.300000 0.000000 0.600000
0.345755 0.337317 0.068267 1.000000 0.000000 0.000000
0.367549 -0.741632 0.085848 1.000000 0.000000 0.000000
-0.275269 0.813084 0.012561 1.000000 0.000000 0.000000
0.032834 -0.311245 -0.019863 0.300000 0.000000 0.600000
-0.353872 -0.168633 0.085218 1.000000 0.000000 0.000000
0.337707 0.768092 -0.022898 1.000000 0.000000 0.000000
0.366495 0.770401 0.072967 1.000000 0.000000 0.000000
0.345755 0.033219 0.068890 1.000000 0.000000 0.000000
-0.043950 0.706767 -0.016576 0.300000 0.000000 0.600000
-0.288272 0.198608 -0.016576 0.300000 0.000000 0.600000
0.108869 0.456019 -0.016576 0.300000 0.000000 0.600000
0.273251 0.828939 0.081014 1.000000 0.000000 0.000000
0.000095 -0.719056 -0.016576 0.300000 0.000000 0.600000
0.202012 -0.586057 -0.019863 0.300000 0.000000 0.600000
-0.207168 0.788282 -0.016576 0.300000 0.000000 0.600000
-0.321382 -0.684848 0.035336 1.000000 0.000000 0.000000
0.083111 -0.084349 -0.016576 0.300000 0.000000 0.600000
-0.323560 -0.710813 0.012561 1.000000 0.000000 0.000000
-0.362005 -0.631376 0.072967 1.000000 0.000000 0.000000
0.211538 -0.131352 -0.016576 0.300000 0.000000 0.600000
0.029342 0.826458 0.078996 1.000000 0.000000 0.000000
-0.358980 -0.234374 -0.030962 1.000000 0.000000 0.000000
0.154521 -0.848681 -0.019863 0.300000 0.000000 0.600000
0.011294 -0.918570 -0.019863 0.300000 0.000000 0.600000
0.040122 -0.420738 -0.019863 0.300000 0.000000 0.600000
-0.202068 0.065860 -0.019863 0.300000 0.000000 0.600000
-0.325470 -0.079455 -0.016576 0.300000 0.000000 0.600000
-0.237194 -0.623844 -0.019863 0.300000 0.000000 0.600000
0.345755 -0.738491 -0.011718 1.000000 0.000000 0.000000
0.158358 -0.383744 -0.019863 0.300000 0.000000 0.600000
-0.321382 0.475054 0.032902 1.000000 0.000000 0.000000
-0.348032 0.775422 0.029160 1.000000 0.000000 0.000000
-0.012913 0.811224 0.061366 1.000000 0.000000 0.000000
-0.098273 0.168513 -0.016576 0.300000 0.000000 0.600000
0.121989 0.837874 0.023650 1.000000 0.000000 0.000000
-0.367620 0.009612 -0.031412 1.000000 0.000000 0.000000
0.319105 -0.411379 0.069143 1.000000 0.000000 0.000000
-0.059168 -0.302405 -0.019863 0.300000 0.000000 0.600000
-0.354712 -0.848610 0.072967 1.000000 0.000000 0.000000
-0.333746 -0.894859 -0.018531 1.000000 0.000000 0.000000
0.136029 -0.497787 -0.019863 0.300000 0.000000 0.600000
-0.192778 -0.245010 -0.016576 0.300000 0.000000 0.600000
0.198864 0.206163 -0.016576 0.300000 0.000000 0.600000
-0.046259 0.421464 -0.019863 0.300000 0.000000 0.600000
-0.348032 0.396820 0.055012 1.000000 0.000000 0.000000
-0.348032 0.289816 0.052750 1.000000 0.000000 0.000000
0.345755 -0.434979 0.039328 1.000000 0.000000 0.000000
0.328351 -0.572167 -0.016576 0.300000 0.000000 0.600000
-0.348032 0.241045 0.041741 1.000000 0.000000 0.000000
0.359501 0.470386 -0.018531 1.000000 0.000000 0.000000
-0.354704 -0.478801 -0.018531 1.000000 0.000000 0.000000
-0.233360 0.059499 -0.019863 0.300000 0.000000 0.600000
-0.319989 -0.407140 -0.016576 0.300000 0.000000 0.600000
0.375958 -0.720560 -0.028574 1.000000 0.000000 0.000000
0.349944 -0.367656 0.072967 1.000000 0.000000 0.000000
-0.070591 -0.459447 -0.019863 0.300000 0.000000 0.600000
0.345755 -0.855215 0.053526 1.000000 0.000000 0.000000
-0.302250 -0.356601 -0.016576 0.300000 0.000000 0.600000
-0.018172 0.844625 -0.018531 1.000000 0.000000 0.000000
-0.016884 -0.233687 -0.016576 0.300000 0.000000 0.600000
0.327988 0.665365 0.012365 1.000000 0.000000 0.000000
0.352349 0.761790 0.072967 1.000000 0.000000 0.000000
0.034688 0.838010 0.072967 1.000000 0.000000 0.000000
0.356214 0.323606 0.085848 1.000000 0.000000 0.000000
-0.240985 0.359647 -0.016576 0.300000 0.000000 0.600000
0.319105 -0.204496 0.021656 1.000000 0.000000 0.000000
-0.015492 -0.097831 -0.016576 0.300000 0.000000 0.600000
-0.287763 0.041801 -0.016576 0.300000 0.000000 0.600000
-0.024501 0.847313 0.085848 1.000000 0.000000 0.000000
0.128731 -0.116342 -0.016576 0.300000 0.000000 0.600000
0.327988 -0.282508 0.008351 1.000000 0.000000 0.000000
-0.078942 0.227709 -0.019863 0.300000 0.000000 0.600000
-0.010857 -0.519805 -0.019863 0.300000 0.000000 0.600000
0.280593 -0.023430 -0.016576 0.300000 0.000000 0.600000
-0.118883 0.489429 -0.019863 0.300000 0.000000 0.600000
-0.325775 -0.381705 0.012561 1.000000 0.000000 0.000000
-0.330265 -0.314078 -0.017431 1.000000 0.000000 0.000000
0.303650 0.328010 -0.016576 0.300000 0.000000 0.600000
0.361709 0.656006 -0.031412 1.000000 0.000000 0.000000
0.263192 0.811224 0.072230 1.000000 0.000000 0.000000
-0.311326 -0.867867 -0.019863 0.300000 0.000000 0.600000
0.368267 0.330696 0.072967 1.000000 0.000000 0.000000
-0.165345 -0.434031 -0.019863 0.300000 0.000000 0.600000
-0.348032 0.443775 -0.015962 1.000000 0.000000 0.000000
0.216784 0.410919 -0.016576 0.300000 0.000000 0.600000
-0.160972 0.838916 -0.028289 1.000000 0.000000 0.000000
0.121944 -0.644100 -0.016576 0.300000 0.000000 0.600000
-0.378235 0.730283 -0.018854 1.000000 0.000000 0.000000
-0.092550 0.470169 -0.016576 0.300000 0.000000 0.600000
0.262066 0.496649 -0.016576 0.300000 0.000000 0.600000
0.371516 0.229315 0.085134 1.000000 0.000000 0.000000
0.356680 0.069618 0.072967 1.000000 0.000000 0.000000
-0.176812 -0.411125 -0.016576 0.300000 0.000000 0.600000
-0.323097 0.285976 0.012561 1.000000 0.000000 0.000000
-0.352367 -0.381892 0.072967 1.000000 0.000000 0.000000
0.107078 0.820107 -0.005970 1.000000 0.000000 0.000000
0.319892 0.073402 0.072967 1.000000 0.000000 0.000000
-0.212869 0.860505 0.072967 1.000000 0.000000 0.000000
-0.209672 0.273571 -0.016576 0.300000 0.000000 0.600000
-0.348032 -0.548977 -0.014245 1.000000 0.000000 0.000000
0.346433 -0.840406 -0.028191 1.000000 0.000000 0.000000
0.070495 -0.380429 -0.016576 0.300000 0.000000 0.600000
0.013988 -0.458784 -0.016576 0.300000 0.000000 0.600000
-0.310508 -0.312122 -0.019863 0.300000 0.000000 0.600000
0.351807 -0.156302 -0.018531 1.000000 0.000000 0.000000
0.087106 -0.014291 -0.016576 0.300000 0.000000 0.600000
-0.307225 0.853702 0.072967 1.000000 0.000000 0.000000
-0.150034 -0.490106 -0.019863 0.300000 0.000000 0.600000
0.345755 -0.694672 0.068056 1.000000 0.000000 0.000000
-0.038707 0.215724 -0.016576 0.300000 0.000000 0.600000
0.345755 -0.318864 0.017314 1.000000 0.000000 0.000000
0.100007 0.733329 -0.019863 0.300000 0.000000 0.600000
0.247904 0.185990 -0.019863 0.300000 0.000000 0.600000
0.100310 -0.841403 -0.016576 0.300000 0.000000 0.600000
0.366855 -0.347512 -0.018531 1.000000 0.000000 0.000000
0.212973 0.827309 -0.018531 1.000000 0.000000 0.000000
-0.373793 -0.571164 0.085016 1.000000 0.000000 0.000000
-0.350539 -0.304775 -0.018531 1.000000 0.000000 0.000000
0.361645 -0.303203 -0.018531 1.000000 0.000000 0.000000
-0.343410 0.589947 -0.026508 1.000000 0.000000 0.000000
-0.299334 -0.544779 -0.016576 0.300000 0.000000 0.600000
0.145264 0.357926 -0.016576 0.300000 0.000000 0.600000
-0.308295 0.716078 -0.016576 0.300000 0.000000 0.600000
-0.335232 -0.683769 0.076627 1.000000 0.000000 0.000000
-0.328640 0.310841 0.012561 1.000000 0.000000 0.000000
0.278508 -0.665056 -0.019863 0.300000 0.000000 0.600000
-0.031229 0.531798 -0.019863 0.300000 0.000000 0.600000
-0.365799 0.262470 -0.018531 1.000000 0.000000 0.000000
-0.275475 0.852050 -0.018531 1.000000 0.000000 0.000000
-0.138086 -0.433087 -0.016576 0.300000 0.000000 0.600000
-0.032070 0.060588 -0.019863 0.300000 0.000000 0.600000
0.345755 0.359917 -0.006984 1.000000 0.000000 0.000000
-0.170971 -0.201285 -0.016576 0.300000 0.000000 0.600000
-0.067728 0.837874 0.037567 1.000000 0.000000 0.000000
0.098407 -0.380291 -0.016576 0.300000 0.000000 0.600000
-0.348032 -0.433208 0.060155 1.000000 0.000000 0.000000
0.352071 -0.819763 -0.018531 1.000000 0.000000 0.000000
0.371516 0.709600 0.081408 1.000000 0.000000 0.000000
0.345755 -0.879496 -0.013099 1.000000 0.000000 0.000000
0.057994 -0.820754 -0.016576 0.300000 0.000000 0.600000
-0.321382 0.241600 0.045288 1.000000 0.000000 0.000000
-0.104619 0.719410 -0.019863 0.300000 0.000000 0.600000
-0.161184 0.857298 0.085848 1.000000 0.000000 0.000000
0.345755 -0.820940 0.022790 1.000000 0.000000 0.000000
-0.015405 -0.868150 -0.016576 0.300000 0.000000 0.600000
-0.145784 0.167580 -0.016576 0.300000 0.000000 0.600000
0.244895 0.289614 -0.016576 0.300000 0.000000 0.600000
-0.361658 -0.031166 0.085848 1.000000 0.000000 0.000000
-0.366111 0.857238 -0.031412 1.000000 0.000000 0.000000
0.364837 0.605215 -0.018531 1.000000 0.000000 0.000000
-0.358686 -0.399517 0.085848 1.000000 0.000000 0.000000
-0.368754 0.676338 -0.018531 1.000000 0.000000 0.000000
0.191239 0.363408 -0.016576 0.300000 0.000000 0.600000
0.129327 -0.774217 -0.019863 0.300000 0.000000 0.600000
0.369055 -0.619487 0.072967 1.000000 0.000000 0.000000
0.053267 0.037237 -0.019863 0.300000 0.000000 0.600000
-0.356156 -0.952040 0.085834 1.000000 0.000000 0.000000
0.319105 -0.811840 0.026000 1.000000 0.000000 0.000000
-0.147361 0.501507 -0.016576 0.300000 0.000000 0.600000
-0.336209 0.173371 -0.018531 1.000000 0.000000 0.000000
-0.342279 0.024736 -0.025756 1.000000 0.000000 0.000000
0.123874 -0.684846 -0.019863 0.300000 0.000000 0.600000
-0.177757 -0.313750 -0.019863 0.300000 0.000000 0.600000
-0.035465 0.564814 -0.016576 0.300000 0.000000 0.600000
-0.354581 0.831704 0.085409 1.000000 0.000000 0.000000
0.329750 -0.954778 0.072202 1.000000 0.000000 0.000000
-0.217944 -0.620105 -0.016576 0.300000 0.000000 0.600000
-0.042658 -0.783155 -0.019863 0.300000 0.000000 0.600000
-0.348032 -0.603004 -0.015970 1.000000 0.000000 0.000000
0.118387 0.863635 0.073031 1.000000 0.000000 0.000000
0.138980 0.003332 -0.019863 0.300000 0.000000 0.600000
0.359406 -0.367250 -0.018531 1.000000 0.000000 0.000000
0.082948 0.331528 -0.016576 0.300000 0.000000 0.600000
-0.348032 -0.491912 0.014136 1.000000 0.000000 0.000000
-0.340247 -0.155227 0.081536 1.000000 0.000000 0.000000
0.239892 -0.212614 -0.019863 0.300000 0.000000 0.600000
-0.348032 -0.683784 -0.002273 1.000000 0.000000 0.000000
0.297821 -0.605021 -0.019863 0.300000 0.000000 0.600000
-0.369228 0.378040 -0.018531 1.000000 0.000000 0.000000
0.345755 -0.469167 0.053467 1.000000 0.000000 0.000000
-0.052152 -0.559751 -0.019863 0.300000 0.000000 0.600000
-0.221366 0.508871 -0.019863 0.300000 0.000000 0.600000
-0.324770 0.337997 -0.019863 0.300000 0.000000 0.600000
-0.136302 -0.841573 -0.016576 0.300000 0.000000 0.600000
0.319921 -0.644641 0.012561 1.000000 0.000000 0.000000
0.319105 -0.772897 0.066513 1.000000 0.000000 0.000000
0.080703 0.209748 -0.019863 0.300000 0.000000 0.600000
-0.106201 0.016095 -0.016576 0.300000 0.000000 0.600000
-0.324492 0.506087 0.072967 1.000000 0.000000 0.000000
0.323710 0.026058 -0.019863 0.300000 0.000000 0.600000
0.060940 0.402237 -0.019863 0.300000 0.000000 0.600000
0.345755 0.710696 0.063470 1.000000 0.000000 0.000000
-0.102486 -0.382079 -0.019863 0.300000 0.000000 0.600000
0.052663 0.432626 -0.016576 0.300000 0.000000 0.600000
-0.321382 0.582738 0.029944 1.000000 0.000000 0.000000
0.015604 0.067750 -0.016576 0.300000 0.000000 0.600000
0.351769 -0.497442 -0.029631 1.000000 0.000000 0.000000
0.310996 0.584818 -0.019863 0.300000 0.000000 0.600000
-0.300317 0.164230 -0.019863 0.300000 0.000000 0.600000
-0.108982 0.868035 -0.018531 1.000000 0.000000 0.000000
-0.323742 -0.641419 0.072967 1.000000 0.000000 0.000000
0.345755 -0.637142 0.062071 1.000000 0.000000 0.000000
-0.356763 0.823221 0.072967 1.000000 0.000000 0.000000
-0.216056 -0.643711 -0.016576 0.300000 0.000000 0.600000
0.319105 -0.234356 0.017099 1.000000 0.000000 0.000000
0.351446 -0.749966 -0.029544 1.000000 0.000000 0.000000
-0.366187 0.215710 -0.031412 1.000000 0.000000 0.000000
0.065787 0.582468 -0.016576 0.300000 0.000000 0.600000
0.345755 0.004471 0.004419 1.000000 0.000000 0.000000
-0.303022 0.525910 -0.019863 0.300000 0.000000 0.600000
0.100351 0.184768 -0.016576 0.300000 0.000000 0.600000
0.251273 -0.320675 -0.019863 0.300000 0.000000 0.600000
-0.348032 -0.396450 0.008547 1.000000 0.000000 0.000000
-0.366102 -0.296820 -0.031412 1.000000 0.000000 0.000000
-0.348032 -0.699534 0.018733 1.000000 0.000000 0.000000
0.256512 -0.176038 -0.019863 0.300000 0.000000 0.600000
0.345755 -0.589138 0.025703 1.000000 0.000000 0.000000
-0.294560 -0.740870 -0.019863 0.300000 0.000000 0.600000
0.001834 0.228007 -0.016576 0.300000 0.000000 0.600000
-0.313965 0.190988 -0.019863 0.300000 0.000000 0.600000
-0.060887 -0.394788 -0.016576 0.300000 0.000000 0.600000
-0.118424 -0.338686 -0.016576 0.300000 0.000000 0.600000
0.319105 -0.895882 0.046518 1.000000 0.000000 0.000000
0.265452 -0.949419 -0.019863 0.300000 0.000000 0.600000
-0.016787 0.002549 -0.019863 0.300000 0.000000 0.600000
-0.348032 -0.196914 0.000214 1.000000 0.000000 0.000000
-0.186535 -0.649685 -0.016576 0.300000 0.000000 0.600000
0.208015 0.498767 -0.019863 0.300000 0.000000 0.600000
0.345755 0.139075 0.003728 1.000000 0.000000 0.000000
-0.059581 -0.810621 -0.016576 0.300000 0.000000 0.600000
0.331036 -0.925658 0.072967 1.000000 0.000000 0.000000
-0.330265 0.147679 0.002320 1.000000 0.000000 0.000000
-0.330265 -0.358412 0.002798 1.000000 0.000000 0.000000
0.338024 0.837874 -0.005942 1.000000 0.000000 0.000000
0.097742 0.852721 -0.018531 1.000000 0.000000 0.000000
0.363883 0.568193 -0.031412 1.000000 0.000000 0.000000
-0.348032 -0.580839 0.066239 1.000000 0.000000 0.000000
0.137504 0.847337 0.085848 1.000000 0.000000 0.000000
-0.017966 -0.691244 -0.019863 0.300000 0.000000 0.600000
-0.141660 0.837874 0.021818 1.000000 0.000000 0.000000
-0.321382 -0.085953 0.042517 1.000000 0.000000 0.000000
0.142082 0.396755 -0.019863 0.300000 0.000000 0.600000
0.320173 0.682861 -0.019863 0.300000 0.000000 0.600000
0.042402 -0.245607 -0.016576 0.300000 0.000000 0.600000
0.196119 -0.762672 -0.016576 0.300000 0.000000 0.600000
-0.363781 -0.637528 -0.018531 1.000000 0.000000 0.000000
0.222747 0.778534 -0.016576 0.300000 0.000000 0.600000
0.014039 0.811224 0.058807 1.000000 0.000000 0.000000
0.342702 0.384005 -0.027185 1.000000 0.000000 0.000000
-0.298925 0.267809 -0.016576 0.300000 0.000000 0.600000
-0.119059 0.697514 -0.019863 0.300000 0.000000 0.600000
-0.070729 0.858837 -0.031412 1.000000 0.000000 0.000000
-0.302157 -0.937788 -0.019863 0.300000 0.000000 0.600000
0.230985 -0.809639 -0.019863 0.300000 0.000000 0.600000
-0.179033 -0.522915 -0.016576 0.300000 0.000000 0.600000
-0.232950 0.860357 -0.031412 1.000000 0.000000 0.000000
-0.355776 0.193205 -0.018531 1.000000 0.000000 0.000000
0.106845 -0.329794 -0.019863 0.300000 0.000000 0.600000
0.324598 0.160632 -0.019863 0.300000 0.000000 0.600000
-0.351657 -0.651038 0.084621 1.000000 0.000000 0.000000
0.319105 0.134050 0.072073 1.000000 0.000000 0.000000
0.354371 -0.527650 -0.030333 1.000000 0.000000 0.000000
0.345755 -0.104999 0.041047 1.000000 0.000000 0.000000
-0.335104 0.649563 0.076237 1.000000 0.000000 0.000000
-0.358534 0.057655 0.085848 1.000000 0.000000 0.000000
0.345755 0.269631 0.058186 1.000000 0.000000 0.000000
-0.378235 0.248532 -0.024922 1.000000 0.000000 0.000000
0.013096 -0.834691 -0.016576 0.300000 0.000000 0.600000
0.362419 -0.766923 0.085848 1.000000 0.000000 0.000000
0.203552 -0.168701 -0.019863 0.300000 0.000000 0.600000
0.311207 -0.484540 -0.019863 0.300000 0.000000 0.600000
0.272968 0.786565 -0.016576 0.300000 0.000000 0.600000
0.319105 0.042935 0.036380 1.000000 0.000000 0.000000
-0.228924 -0.838777 -0.016576 0.300000 0.000000 0.600000
0.023834 -0.612252 -0.016576 0.300000 0.000000 0.600000
0.350512 -0.650506 0.072967 1.000000 0.000000 0.000000
-0.348032 0.769335 0.045983 1.000000 0.000000 0.000000
-0.371847 0.505255 -0.031412 1.000000 0.000000 0.000000
0.047613 0.066088 -0.016576 0.300000 0.000000 0.600000
0.349646 0.310986 0.084692 1.000000 0.000000 0.000000
-0.348032 0.668927 -0.007977 1.000000 0.000000 0.000000
0.300779 0.852379 -0.031412 1.000000 0.000000 0.000000
0.298287 -0.511029 -0.019863 0.300000 0.000000 0.600000
-0.235866 0.105738 -0.016576 0.300000 0.000000 0.600000
0.298652 0.837874 0.057539 1.000000 0.000000 0.000000
0.327988 0.757562 -0.009975 1.000000 0.000000 0.000000
-0.003473 -0.486827 -0.016576 0.300000 0.000000 0.600000
-0.038403 -0.175059 -0.019863 0.300000 0.000000 0.600000
0.330515 -0.400633 0.072967 1.000000 0.000000 0.000000
-0.378235 0.414369 -0.020663 1.000000 0.000000 0.000000
-0.321382 -0.439227 0.051882 1.000000 0.000000 0.000000
0.275595 -0.104527 -0.016576 0.300000 0.000000 0.600000
-0.140420 0.858302 0.072967 1.000000 0.000000 0.000000
0.274529 0.837874 0.029510 1.000000 0.000000 0.000000
0.375958 0.451542 -0.023714 1.000000 0.000000 0.000000
0.311966 0.820107 -0.000452 1.000000 0.000000 0.000000
-0.321382 0.515688 0.042001 1.000000 0.000000 0.000000
-0.361652 0.582346 -0.018531 1.000000 0.000000 0.000000
0.179848 0.253058 -0.016576 0.300000 0.000000 0.600000
-0.159695 0.685044 -0.019863 0.300000 0.000000 0.600000
0.332430 0.715227 0.073290 1.000000 0.000000 0.000000
0.345755 0.254230 0.049299 1.000000 0.000000 0.000000
0.345755 0.697627 -0.016668 1.000000 0.000000 0.000000
-0.175332 0.046924 -0.016576 0.300000 0.000000 0.600000
-0.330265 -0.278872 0.006968 1.000000 0.000000 0.000000
0.334577 0.417674 0.079255 1.000000 0.000000 0.000000
-0.351136 0.145959 -0.028846 1.000000 0.000000 0.000000
-0.355149 0.361603 -0.029928 1.000000 0.000000 0.000000
-0.053388 -0.130199 -0.019863 0.300000 0.000000 0.600000
-0.362691 -0.275646 0.072967 1.000000 0.000000 0.000000
0.365114 0.699780 0.072967 1.000000 0.000000 0.000000
0.341857 -0.673450 -0.026870 1.000000 0.000000 0.000000
0.345755 0.216081 0.009367 1.000000 0.000000 0.000000
-0.341655 -0.216323 -0.025209 1.000000 0.000000 0.000000
-0.364316 0.216228 0.085848 1.000000 0.000000 0.000000
-0.141421 -0.089634 -0.019863 0.300000 0.000000 0.600000
-0.032225 -0.755685 -0.019863 0.300000 0.000000 0.600000
0.345755 0.371351 0.045873 1.000000 0.000000 0.000000
0.156188 0.257754 -0.019863 0.300000 0.000000 0.600000
0.345755 -0.118162 0.072678 1.000000 0.000000 0.000000
-0.118485 -0.658748 -0.016576 0.300000 0.000000 0.600000
0.113523 -0.558291 -0.016576 0.300000 0.000000 0.600000
0.079401 -0.671911 -0.016576 0.300000 0.000000 0.600000
-0.253024 -0.761711 -0.019863 0.300000 0.000000 0.600000
0.289108 -0.918052 -0.016576 0.300000 0.000000 0.600000
-0.348032 0.380358 0.056050 1.000000 0.000000 0.000000
0.081215 -0.332505 -0.019863 0.300000 0.000000 0.600000
0.304706 0.804090 -0.019863 0.300000 0.000000 0.600000
-0.351356 -0.816456 -0.028905 1.000000 0.000000 0.000000
0.342235 -0.584981 0.082693 1.000000 0.000000 0.000000
0.285602 0.748797 -0.019863 0.300000 0.000000 0.600000
-0.322911 -0.311937 0.012561 1.000000 0.000000 0.000000
0.055428 -0.561759 -0.016576 0.300000 0.000000 0.600000
0.156056 0.597156 -0.016576 0.300000 0.000000 0.600000
-0.274251 0.137189 -0.016576 0.300000 0.000000 0.600000
-0.351968 -0.842220 -0.029070 1.000000 0.000000 0.000000
0.210348 -0.068233 -0.019863 0.300000 0.000000 0.600000
-0.373793 -0.192566 0.078756 1.000000 0.000000 0.000000
-0.340727 -0.620094 0.081672 1.000000 0.000000 0.000000
0.350907 -0.431872 -0.029398 1.000000 0.000000 0.000000
-0.067899 0.652810 -0.019863 0.300000 0.000000 0.600000
-0.321382 -0.589714 0.021591 1.000000 0.000000 0.000000
0.132756 0.321792 -0.016576 0.300000 0.000000 0.600000
0.319105 -0.453874 0.025331 1.000000 0.000000 0.000000
0.019945 -0.383966 -0.019863 0.300000 0.000000 0.600000
0.101775 -0.777867 -0.016576 0.300000 0.000000 0.600000
-0.176701 0.388626 -0.016576 0.300000 0.000000 0.600000
0.252073 -0.026090 -0.019863 0.300000 0.000000 0.600000
0.146677 0.715016 -0.019863 0.300000 0.000000 0.600000
-0.352132 -0.350951 0.072967 1.000000 0.000000 0.000000
-0.373793 -0.797909 0.085804 1.000000 0.000000 0.000000
-0.370640 -0.600721 -0.018531 1.000000 0.000000 0.000000
0.222405 0.427521 -0.016576 0.300000 0.000000 0.600000
-0.228402 0.849232 0.085848 1.000000 0.000000 0.000000
0.319105 -0.607644 0.044362 1.000000 0.000000 0.000000
0.055577 0.245695 -0.019863 0.300000 0.000000 0.600000
-0.265198 0.825437 0.077446 1.000000 0.000000 0.000000
0.319105 0.704533 0.023544 1.000000 0.000000 0.000000
0.207875 0.112153 -0.016576 0.300000 0.000000 0.600000
0.062555 -0.304877 -0.019863 0.300000 0.000000 0.600000
-0.258397 0.795125 -0.016576 0.300000 0.000000 0.600000
-0.105671 0.837874 0.071259 1.000000 0.000000 0.000000
0.327988 0.201019 0.009786 1.000000 0.000000 0.000000
-0.266410 0.507154 -0.019863 0.300000 0.000000 0.600000
0.327988 -0.163429 -0.004170 1.000000 0.000000 0.000000
-0.364849 0.139264 -0.031412 1.000000 0.000000 0.000000
0.319105 0.103615 0.057206 1.000000 0.000000 0.000000
-0.328740 -0.579407 -0.016576 0.300000 0.000000 0.600000
-0.322462 0.724010 0.012561 1.000000 0.000000 0.000000
-0.046327 0.043933 -0.016576 0.300000 0.000000 0.600000
-0.359417 0.374861 -0.031080 1.000000 0.000000 0.000000
