ply
format ascii 1.0
element vertex 1277
property float x
property float y
property float z
property uchar red
property uchar green
property uchar blue
end_header
0.475932 -0.781762 0.131348 76 153 0
0.405815 -0.232703 -0.021655 76 153 0
-0.178873 0.108846 -0.447986 153 76 0
0.396120 0.210353 -0.025011 76 153 0
-0.045378 -0.016375 -0.250796 153 76 0
0.469425 0.516526 0.207352 76 153 0
0.413275 0.567334 0.207307 76 153 0
0.143007 0.477514 0.030979 153 76 0
0.157815 0.368019 -0.046265 153 76 0
-0.509355 0.496193 0.137304 76 153 0
0.441470 -0.310751 0.204034 76 153 0
0.348930 -0.047297 0.207307 76 153 0
0.542003 0.614135 0.152758 76 153 0
0.271416 -0.430072 0.195162 76 153 0
-0.101902 0.600794 -0.025011 76 153 0
-0.555528 -0.082908 0.207719 76 153 0
0.223094 -0.701606 0.030672 153 76 0
-0.045088 0.332827 -0.193446 153 76 0
-0.623572 0.138239 0.157710 76 153 0
0.135874 -0.136841 0.022468 153 76 0
-0.062231 0.087156 -0.213901 153 76 0
0.383138 -0.781762 0.048630 76 153 0
-0.125006 0.481459 -0.383714 153 76 0
-0.231703 -0.321785 -0.416106 153 76 0
0.346775 -0.106963 -0.021738 76 153 0
-0.564813 -0.781762 0.044603 76 153 0
0.183670 0.260144 0.077679 153 76 0
-0.228559 0.363321 -0.412354 153 76 0
-0.539732 0.132309 0.207472 76 153 0
-0.113335 0.343375 -0.355613 153 76 0
0.271268 -0.118971 0.141281 76 153 0
-0.623565 -0.717974 0.133574 76 153 0
0.271268 0.015076 0.145489 76 153 0
0.467063 0.478227 -0.021738 76 153 0
0.123598 -0.720429 -0.087091 153 76 0
0.486196 -0.479650 0.207307 76 153 0
0.271268 -0.755777 0.140960 76 153 0
-0.512756 0.342169 0.143862 76 153 0
-0.522025 0.050805 0.207186 76 153 0
-0.168643 0.705980 0.010360 76 153 0
-0.016940 0.635931 0.204034 76 153 0
0.541757 -0.185748 0.203798 76 153 0
0.182304 -0.478499 -0.017046 153 76 0
-0.059676 0.467037 -0.305765 153 76 0
-0.035922 -0.443152 -0.182509 153 76 0
0.200995 0.403028 0.081636 153 76 0
-0.568970 0.050055 -0.021406 76 153 0
0.209886 0.215951 0.015862 153 76 0
0.229433 -0.380715 0.058106 153 76 0
-0.195925 -0.692044 -0.373417 153 76 0
-0.564201 -0.781762 0.143278 76 153 0
0.366484 -0.495858 -0.021738 76 153 0
-0.019151 -0.657955 -0.257413 153 76 0
-0.552857 0.430236 -0.021748 76 153 0
0.373541 0.352290 -0.021738 76 153 0
-0.179510 0.705752 0.155556 76 153 0
-0.253184 -0.739240 -0.441736 153 76 0
-0.512756 -0.698878 0.133002 76 153 0
-0.512756 -0.716181 0.034564 76 153 0
-0.623565 0.636995 0.125827 76 153 0
-0.077298 -0.409262 -0.312615 153 76 0
-0.328668 0.530635 0.142863 76 153 0
-0.626838 0.227279 0.121424 76 153 0
-0.512756 0.485445 0.055127 76 153 0
0.065156 0.040334 -0.061908 153 76 0
0.015612 0.465480 -0.121022 153 76 0
-0.213256 -0.701323 -0.489010 153 76 0
0.133885 0.515680 -0.074817 153 76 0
0.377053 0.565706 -0.021738 76 153 0
-0.623565 0.366037 0.064039 76 153 0
0.455267 0.445673 0.207397 76 153 0
0.005267 -0.644001 -0.133365 153 76 0
-0.118927 0.118381 -0.375312 153 76 0
-0.181273 0.264268 -0.450849 153 76 0
0.125952 -0.480387 -0.084284 153 76 0
-0.150786 0.398665 -0.414473 153 76 0
-0.103983 -0.148410 -0.344455 153 76 0
0.348656 -0.637954 -0.025011 76 153 0
0.274540 0.494404 0.035198 76 153 0
-0.154215 0.198840 -0.323651 153 76 0
0.445614 -0.013332 -0.030664 76 0 153
0.050043 -0.680204 -0.174854 153 76 0
-0.509116 -0.498692 0.021153 76 153 0
0.274541 0.340514 0.044610 76 153 0
0.068799 -0.384547 -0.138300 153 76 0
-0.010156 0.203125 -0.151767 153 76 0
0.271268 0.480703 0.158046 76 153 0
-0.349614 0.709023 0.129758 76 153 0
0.206107 -0.632500 0.011354 153 76 0
0.186777 -0.002400 -0.011709 153 76 0
0.271268 -0.347263 0.171239 76 153 0
0.041200 0.104779 -0.090491 153 76 0
-0.165014 0.631084 -0.021373 76 153 0
-0.057099 0.705751 0.019435 76 153 0
-0.256819 -0.000946 -0.446073 153 76 0
-0.241775 -0.578754 -0.428123 153 76 0
0.206032 -0.251928 0.011264 153 76 0
0.125762 0.072436 -0.084510 153 76 0
-0.110134 0.633739 0.204034 76 153 0
0.226037 -0.493365 0.035072 153 76 0
0.229826 0.708160 0.193374 76 153 0
0.447705 -0.724190 0.207307 76 153 0
-0.118727 -0.058452 -0.375479 153 76 0
0.271268 -0.104844 0.058918 76 153 0
0.271268 -0.548545 0.147234 76 153 0
0.542001 -0.066124 0.075291 76 153 0
-0.051547 -0.129023 -0.270320 153 76 0
0.403617 -0.213081 0.204034 76 153 0
0.226474 -0.042397 0.035913 153 76 0
-0.162194 -0.365763 -0.428086 153 76 0
0.330818 -0.668673 0.204034 76 153 0
-0.221683 0.523765 -0.404151 153 76 0
0.097764 -0.053319 -0.023002 153 76 0
-0.220510 -0.213779 -0.402750 153 76 0
0.349026 -0.781762 0.162519 76 153 0
0.420386 0.297699 0.204034 76 153 0
-0.412925 0.622155 -0.021738 76 153 0
0.023466 -0.552492 -0.192388 153 76 0
-0.395937 0.709448 0.025357 76 153 0
0.277851 -0.221006 -0.021200 76 153 0
0.545274 0.513909 0.048376 76 153 0
0.055448 -0.510440 -0.073492 153 76 0
0.113204 -0.412816 -0.004580 153 76 0
-0.129812 -0.752989 -0.389449 153 76 0
-0.216241 -0.625453 -0.486677 153 76 0
0.412436 -0.614822 -0.021738 76 153 0
0.494540 0.023276 0.204034 76 153 0
-0.559642 -0.507543 -0.025011 76 153 0
0.271268 0.167754 0.052472 76 153 0
0.306462 0.366026 0.204378 76 153 0
0.545274 -0.282130 0.102354 76 153 0
0.485940 0.264040 -0.025011 76 153 0
0.532533 -0.548585 -0.024427 76 153 0
-0.626077 -0.097031 0.197199 76 153 0
-0.200128 0.530635 0.123180 76 153 0
0.127112 0.530636 0.169574 76 153 0
0.489590 0.402217 -0.021738 76 153 0
0.318754 -0.434682 -0.025011 76 153 0
0.401002 0.501121 -0.021738 76 153 0
-0.626838 -0.251065 0.106267 76 153 0
0.029912 0.381028 -0.103960 153 76 0
0.212195 0.588954 0.207307 76 153 0
-0.509483 -0.585219 0.055953 76 153 0
-0.008424 0.540586 0.205903 76 153 0
-0.074929 -0.477131 -0.309789 153 76 0
-0.623295 0.154158 0.018099 76 153 0
0.058810 0.246626 -0.150218 153 76 0
-0.623565 0.385191 0.135087 76 153 0
0.215225 0.364463 0.022233 153 76 0
-0.623241 -0.579550 0.162893 76 153 0
-0.593613 0.286392 -0.025011 76 153 0
-0.493221 0.709233 0.014416 76 153 0
0.545274 0.153376 0.051477 76 153 0
0.090339 0.465770 -0.031861 153 76 0
-0.155178 -0.515268 -0.419715 153 76 0
0.028982 -0.258941 -0.105069 153 76 0
0.348411 0.423408 -0.025011 76 153 0
-0.352037 0.536998 -0.003566 76 153 0
0.056966 0.709179 0.174525 76 153 0
0.542001 -0.176074 0.107240 76 153 0
0.495236 0.666631 0.207557 76 153 0
-0.509483 -0.053876 0.142772 76 153 0
0.040617 0.010068 -0.160355 153 76 0
0.491314 0.126825 -0.025484 76 0 153
0.087124 0.526012 -0.130611 153 76 0
0.173741 0.062406 0.062395 153 76 0
-0.108685 -0.225170 -0.269327 153 76 0
0.351421 -0.527344 0.207307 76 153 0
0.005503 -0.781762 -0.138464 153 76 0
0.030253 0.446986 -0.198467 153 76 0
-0.626838 0.509616 0.135131 76 153 0
-0.512756 -0.002387 0.038032 76 153 0
0.504818 0.125008 0.207307 76 153 0
-0.066778 -0.653109 -0.314239 153 76 0
0.182075 0.511677 -0.017320 153 76 0
-0.169144 0.375800 -0.341463 153 76 0
0.005024 0.530846 -0.007117 76 153 0
0.542001 0.050730 0.132620 76 153 0
-0.080681 0.301539 -0.316652 153 76 0
-0.042188 0.219832 -0.254117 153 76 0
0.271268 0.250864 0.139751 76 153 0
-0.587240 -0.781762 -0.017699 76 153 0
0.144048 0.303606 -0.062692 153 76 0
0.139532 -0.534489 0.026833 153 76 0
0.209520 -0.318291 0.015427 153 76 0
-0.182260 0.657736 0.207307 76 153 0
0.407767 -0.781762 0.109401 76 153 0
0.036481 -0.440825 -0.165289 153 76 0
-0.626838 0.082186 0.059297 76 153 0
-0.480680 0.548360 -0.016082 76 153 0
0.031542 0.534010 0.136827 76 153 0
-0.156525 0.532772 -0.413679 153 76 0
-0.002728 -0.723519 -0.237818 153 76 0
0.028986 -0.185482 -0.105065 153 76 0
0.167504 0.237139 -0.034705 153 76 0
0.124033 0.654260 0.207639 76 153 0
-0.014527 -0.491723 -0.220411 153 76 0
-0.172023 -0.057161 -0.442809 76 0 153
0.279324 -0.300978 -0.021736 76 153 0
-0.095536 -0.739856 -0.253638 153 76 0
0.123750 -0.267171 -0.086910 153 76 0
0.496597 0.650994 -0.025011 76 153 0
-0.496691 0.649086 0.204034 76 153 0
0.190564 0.475571 0.080365 153 76 0
0.275032 -0.335377 0.035421 76 153 0
0.274962 0.444972 -0.017691 76 153 0
0.141235 -0.617247 0.028865 153 76 0
-0.297527 0.533908 0.038978 76 153 0
0.421541 0.643565 0.207912 76 153 0
-0.107074 -0.591236 -0.267404 153 76 0
-0.604432 -0.017721 -0.024895 76 153 0
-0.117018 0.709023 0.139306 76 153 0
0.545606 0.405425 0.154473 76 153 0
0.327175 0.476747 0.204035 76 153 0
-0.219128 0.332654 -0.484257 153 76 0
0.028418 0.647228 -0.021738 76 153 0
-0.602825 -0.663012 -0.024954 76 153 0
-0.145107 0.054296 -0.441224 76 0 153
-0.572512 -0.417272 -0.021738 76 153 0
-0.136685 0.530635 0.038890 76 153 0
-0.231459 0.705750 0.117444 76 153 0
0.289826 -0.580916 0.207986 76 153 0
-0.509151 -0.382541 0.014571 76 153 0
-0.091291 -0.394354 -0.248574 153 76 0
-0.509142 -0.069456 -0.004632 76 153 0
0.316046 -0.036005 -0.021339 76 153 0
0.545274 -0.733398 0.156797 76 153 0
0.048944 -0.631489 -0.081252 153 76 0
-0.191896 -0.232355 -0.463524 153 76 0
0.496583 -0.368369 0.204034 76 153 0
-0.129089 0.068349 -0.293672 153 76 0
-0.258134 0.705781 0.018255 76 153 0
-0.512551 -0.425669 0.205216 76 153 0
0.201028 0.530636 0.111174 76 153 0
-0.001841 0.709413 0.078012 76 153 0
-0.417529 0.530635 0.039165 76 153 0
0.426400 -0.530873 -0.021738 76 153 0
0.164837 -0.723194 -0.037888 153 76 0
-0.087636 0.018770 -0.324951 153 76 0
0.338733 0.262193 -0.025011 76 153 0
0.392005 0.709023 0.020526 76 153 0
-0.180114 -0.470638 -0.354553 153 76 0
0.153037 0.315827 0.042947 153 76 0
0.487401 -0.057927 0.207307 76 153 0
-0.257561 -0.181026 -0.446959 153 76 0
0.271406 -0.721595 -0.008921 76 153 0
0.475030 -0.639694 -0.021738 76 153 0
0.065945 0.530635 0.046089 76 153 0
-0.178666 -0.658175 -0.447739 153 76 0
-0.142513 -0.547693 -0.309688 153 76 0
0.473807 -0.247886 -0.025011 76 153 0
0.011718 0.528343 -0.125668 153 76 0
0.474564 -0.781762 0.203684 76 153 0
0.047542 -0.362160 -0.082925 153 76 0
0.118907 0.138664 -0.084572 153 76 0
-0.576907 0.418597 0.207566 76 153 0
0.541553 -0.090142 0.204191 76 153 0
-0.291166 0.660822 -0.021412 76 153 0
-0.347802 0.709023 0.066876 76 153 0
0.172969 -0.411162 0.067132 153 76 0
-0.546492 0.327995 -0.025011 76 153 0
0.189447 -0.150374 -0.008524 153 76 0
0.271268 -0.687338 0.180252 76 153 0
-0.292340 0.705752 0.155307 76 153 0
0.100664 0.260997 -0.019542 153 76 0
0.186001 -0.717510 0.078676 153 76 0
0.137008 -0.138679 -0.071092 153 76 0
0.103287 -0.187179 -0.016412 153 76 0
-0.626838 -0.330289 0.025923 76 153 0
-0.626838 -0.461068 0.038769 76 153 0
-0.509239 0.210642 0.007479 76 153 0
-0.569594 0.248441 0.207639 76 153 0
-0.192180 -0.781762 -0.425811 153 76 0
0.123651 -0.331366 -0.087029 153 76 0
0.044086 -0.114741 -0.087048 153 76 0
0.356720 0.651735 -0.021739 76 153 0
-0.550643 -0.727074 -0.021750 76 153 0
-0.086746 -0.085702 -0.243150 153 76 0
-0.512756 -0.181899 0.143865 76 153 0
-0.626784 0.632909 0.187513 76 153 0
0.142492 -0.596179 -0.064549 153 76 0
-0.211510 0.462844 -0.486927 153 76 0
0.198739 0.135807 0.002563 153 76 0
-0.512740 -0.190469 0.016987 76 153 0
-0.259865 0.236605 -0.449707 153 76 0
0.541874 -0.041110 0.018778 76 153 0
-0.585333 0.559971 0.207640 76 153 0
-0.567527 -0.289246 -0.025011 76 153 0
-0.512756 -0.502704 0.143679 76 153 0
-0.459915 0.705750 0.132048 76 153 0
0.274621 0.074062 0.088873 76 153 0
-0.623565 -0.721996 0.041178 76 153 0
0.519340 -0.153167 -0.019872 76 153 0
0.545649 -0.458989 0.017325 76 153 0
-0.041229 -0.228239 -0.188842 153 76 0
-0.114136 0.709355 0.053856 76 153 0
-0.481434 0.527538 0.183651 76 153 0
0.271268 -0.179113 0.177874 76 153 0
-0.135514 -0.290633 -0.301338 153 76 0
-0.512756 0.252595 0.119289 76 153 0
0.545274 -0.037791 0.133479 76 153 0
-0.207072 0.002577 -0.481632 153 76 0
-0.509483 -0.364922 0.148807 76 153 0
0.450940 0.189227 0.204034 76 153 0
-0.512756 0.370559 0.072667 76 153 0
-0.259122 -0.469952 -0.450737 153 76 0
-0.519763 -0.715181 0.207460 76 153 0
0.325316 0.673860 0.207639 76 153 0
-0.055401 0.530635 0.079204 76 153 0
-0.056592 0.406197 -0.302086 153 76 0
-0.143111 -0.632784 -0.405317 153 76 0
-0.251860 0.600697 0.204034 76 153 0
-0.626838 -0.061983 0.056210 76 153 0
-0.094573 0.191292 -0.333227 153 76 0
-0.065148 0.674554 0.207307 76 153 0
-0.213906 0.306988 -0.394871 153 76 0
-0.146397 -0.008046 -0.409237 153 76 0
-0.530446 0.099311 -0.024995 76 153 0
0.525437 -0.248620 0.207227 76 153 0
-0.073647 -0.480178 -0.227521 153 76 0
0.519366 -0.781762 0.042806 76 153 0
-0.093261 0.534194 0.152707 76 153 0
0.545274 0.607292 0.064678 76 153 0
0.274942 0.388210 0.157742 76 153 0
0.009016 0.278347 -0.198059 153 76 0
-0.509483 0.428088 0.036079 76 153 0
0.050907 0.591561 0.204034 76 153 0
-0.134880 0.408156 -0.300582 153 76 0
0.317334 -0.316336 0.204100 76 153 0
0.282822 0.085277 0.206529 76 153 0
-0.512756 -0.131584 0.049659 76 153 0
-0.041146 -0.635303 -0.188743 153 76 0
0.449455 0.614026 -0.025011 76 153 0
0.274541 -0.248606 0.120562 76 153 0
-0.148635 -0.225769 -0.316993 153 76 0
0.116690 -0.781762 -0.088150 153 76 0
0.109595 0.408089 -0.008886 153 76 0
-0.404075 0.533908 0.104734 76 153 0
-0.178152 0.060198 -0.352211 153 76 0
-0.134600 0.295526 -0.395162 153 76 0
0.049935 -0.721191 -0.080069 153 76 0
0.155032 -0.532870 -0.049586 153 76 0
-0.512747 0.444542 0.167159 76 153 0
0.542001 0.511676 0.137524 76 153 0
-0.623567 -0.598069 0.033754 76 153 0
-0.554680 0.702405 0.204014 76 153 0
-0.211996 -0.403164 -0.392592 153 76 0
0.215281 -0.099548 0.022300 153 76 0
-0.106399 0.018544 -0.266599 153 76 0
0.376699 0.012655 0.204034 76 153 0
-0.622316 0.677363 -0.020268 76 153 0
-0.512756 -0.243125 0.107386 76 153 0
-0.005949 -0.092894 -0.146747 153 76 0
0.542001 -0.657691 0.052972 76 153 0
-0.087100 0.301695 -0.243573 153 76 0
-0.512756 0.071526 0.089501 76 153 0
0.545274 0.017904 0.030095 76 153 0
0.024991 0.064343 -0.178999 153 76 0
0.342351 0.246715 0.207307 76 153 0
0.229235 -0.582140 0.042782 153 76 0
-0.522185 -0.153525 0.207341 76 153 0
-0.172167 -0.448371 -0.439984 153 76 0
-0.037739 0.659960 -0.025011 76 153 0
0.271268 0.411679 0.032893 76 153 0
0.113607 -0.301817 -0.004100 153 76 0
-0.080627 -0.195129 -0.316588 153 76 0
-0.176743 0.185030 -0.445444 153 76 0
-0.568519 -0.211442 0.204034 76 153 0
0.018949 0.145923 -0.186207 153 76 0
-0.206875 0.173909 -0.386482 153 76 0
-0.579981 0.024573 0.204034 76 153 0
0.027258 0.212310 -0.107126 153 76 0
0.107192 0.177384 -0.011753 153 76 0
-0.195623 -0.109233 -0.467971 153 76 0
0.035485 0.322777 -0.097311 153 76 0
0.545349 0.064780 0.072216 76 153 0
0.410070 -0.156911 -0.025011 76 153 0
-0.127228 -0.781558 -0.291451 153 76 0
-0.047624 -0.521085 -0.265639 153 76 0
-0.623565 0.561742 0.104615 76 153 0
-0.540162 0.709023 0.132789 76 153 0
0.167787 0.567825 -0.025011 76 153 0
0.069898 -0.549527 -0.136988 153 76 0
0.054678 0.391595 -0.169324 153 76 0
0.430359 0.147353 -0.021739 76 153 0
0.019280 0.049914 -0.116645 153 76 0
-0.467296 0.705750 0.070515 76 153 0
-0.058567 0.391340 -0.209529 153 76 0
0.143980 -0.080170 0.032140 153 76 0
-0.082892 -0.721882 -0.333465 153 76 0
0.518933 0.391093 0.207284 76 153 0
-0.210985 0.140623 -0.486300 153 76 0
-0.137380 0.532381 -0.303565 153 76 0
-0.509483 0.260910 0.043756 76 153 0
-0.077483 -0.317821 -0.312836 153 76 0
-0.128888 -0.082228 -0.293432 153 76 0
0.080685 -0.229361 -0.124117 153 76 0
-0.384459 0.674480 -0.020098 76 153 0
-0.622165 -0.462575 0.172354 76 153 0
-0.558411 -0.094832 -0.021391 76 153 0
-0.054414 0.342132 -0.285311 153 76 0
-0.122875 -0.211225 -0.366996 153 76 0
0.428751 0.709058 0.137455 76 153 0
-0.136245 0.281089 -0.302210 153 76 0
-0.624924 -0.779765 0.025779 76 153 0
0.475764 -0.781762 -0.002903 76 153 0
0.542004 -0.307901 0.153694 76 153 0
-0.626838 0.672314 0.080153 76 153 0
-0.176535 -0.160043 -0.445197 153 76 0
-0.010776 -0.587667 -0.152507 153 76 0
-0.096192 0.109182 -0.254421 153 76 0
0.319024 0.543599 -0.021570 76 153 0
0.005288 -0.285220 -0.190343 153 76 0
-0.237007 -0.068524 -0.422434 153 76 0
0.113656 -0.667170 -0.004041 153 76 0
-0.565371 0.208860 -0.021406 76 153 0
-0.067263 0.026430 -0.219904 153 76 0
0.061409 0.307769 -0.147117 153 76 0
0.335039 -0.338572 -0.021738 76 153 0
-0.077201 0.112422 -0.312500 153 76 0
0.540601 0.655845 0.011523 76 153 0
-0.024125 0.453651 -0.263348 153 76 0
0.410929 -0.590856 0.204034 76 153 0
-0.409907 0.570256 0.207776 76 153 0
-0.623246 -0.378744 0.116941 76 153 0
0.274882 -0.217856 0.065715 76 153 0
0.271268 0.067090 0.031166 76 153 0
0.545274 0.409144 0.072384 76 153 0
0.209895 -0.461659 0.079754 153 76 0
-0.076793 -0.535641 -0.312012 153 76 0
0.058943 0.109060 -0.150060 153 76 0
-0.164619 -0.403221 -0.336065 153 76 0
-0.481814 0.635911 -0.025011 76 153 0
0.144044 -0.769956 0.032217 153 76 0
0.213029 -0.756178 0.019613 153 76 0
0.090560 -0.540161 -0.031598 153 76 0
-0.577686 0.572832 -0.021446 76 153 0
0.134130 0.534319 0.043454 76 153 0
-0.000333 -0.123608 -0.197049 153 76 0
0.386940 -0.331722 0.207307 76 153 0
0.542001 0.219661 0.143690 76 153 0
-0.509160 -0.632510 0.011781 76 153 0
-0.509465 0.311878 0.018571 76 153 0
0.104333 0.017777 -0.095901 153 76 0
-0.065889 0.521725 -0.218265 153 76 0
-0.141359 -0.637892 -0.308311 153 76 0
0.378493 0.692321 0.206938 76 153 0
-0.569184 -0.537733 0.207307 76 153 0
-0.573517 0.378034 -0.025011 76 153 0
0.360568 0.540431 0.204034 76 153 0
0.542001 -0.525372 0.142834 76 153 0
-0.529268 0.559919 0.204035 76 153 0
0.432775 -0.462378 0.207307 76 153 0
0.077507 -0.420652 -0.047173 153 76 0
0.183356 0.415618 -0.015791 153 76 0
0.271275 0.140507 0.183745 76 153 0
0.393717 0.055787 -0.024904 76 0 153
-0.512756 -0.101423 0.103221 76 153 0
0.212123 0.053950 0.018532 153 76 0
0.066918 -0.173106 -0.059806 153 76 0
0.271268 0.358293 0.097607 76 153 0
-0.626838 0.108149 0.108741 76 153 0
-0.587963 0.138435 -0.025011 76 153 0
0.376791 -0.439461 -0.021738 76 153 0
0.069415 -0.041520 -0.137564 153 76 0
0.275829 0.705750 0.116030 76 153 0
-0.592000 0.476159 -0.025011 76 153 0
-0.623565 -0.267505 0.053187 76 153 0
0.545274 -0.631824 0.145140 76 153 0
-0.626838 -0.521524 0.133815 76 153 0
-0.230972 0.089971 -0.415234 153 76 0
0.156636 -0.367062 -0.047672 153 76 0
0.274592 0.131888 0.095090 76 153 0
-0.038640 -0.346059 -0.185753 153 76 0
0.446057 -0.166121 0.204034 76 153 0
0.545274 -0.420880 0.149658 76 153 0
0.140661 0.709355 0.110168 76 153 0
0.350304 -0.112170 0.204034 76 153 0
0.495318 0.313243 0.204034 76 153 0
-0.236407 0.531035 -0.012038 76 153 0
0.009129 -0.389387 -0.128758 153 76 0
0.526049 0.221095 0.207222 76 153 0
0.002355 0.345953 -0.136840 153 76 0
0.109627 0.394290 -0.103761 153 76 0
-0.510250 -0.776794 0.040867 76 153 0
0.044363 0.433685 -0.086718 153 76 0
0.390546 -0.662481 0.207307 76 153 0
0.163620 -0.245731 -0.039339 153 76 0
-0.509484 0.020169 0.163438 76 153 0
0.466725 -0.126423 -0.025011 76 153 0
-0.626562 -0.188167 0.195830 76 153 0
0.261457 0.624703 -0.025011 76 153 0
0.062402 0.532615 -0.020005 76 153 0
-0.623205 0.306187 0.032210 76 153 0
0.158494 0.653878 -0.025011 76 153 0
-0.281404 0.602943 -0.025011 76 153 0
-0.448425 0.533908 0.137723 76 153 0
0.049690 -0.607379 -0.161099 153 76 0
-0.130318 -0.161530 -0.390052 153 76 0
-0.211475 -0.622300 -0.391971 153 76 0
-0.242038 -0.516322 -0.428437 153 76 0
0.537832 0.707077 0.111599 76 153 0
-0.078671 -0.160512 -0.233516 153 76 0
-0.062653 -0.781762 -0.281140 153 76 0
0.288137 0.315187 0.207652 76 153 0
-0.626838 -0.290952 0.150722 76 153 0
0.536064 -0.469442 0.188326 76 153 0
0.474749 0.700496 -0.023478 76 153 0
-0.512756 -0.755076 0.150250 76 153 0
-0.624402 -0.777123 0.141175 76 153 0
-0.107149 -0.454008 -0.267494 153 76 0
0.081564 -0.727988 -0.137244 153 76 0
-0.567274 -0.781762 0.202828 76 153 0
-0.620398 -0.416838 0.003187 76 153 0
0.274541 -0.017863 0.042451 76 153 0
0.271268 -0.477469 0.080702 76 153 0
-0.623565 -0.620880 0.092699 76 153 0
-0.179322 0.006340 -0.353607 153 76 0
0.000375 -0.027345 -0.139202 153 76 0
0.540607 -0.138778 0.174086 76 153 0
0.015687 0.161581 -0.120933 153 76 0
-0.113495 -0.405545 -0.355804 153 76 0
-0.625438 0.318217 0.198801 76 153 0
0.386364 0.170274 0.207307 76 153 0
0.470493 -0.072641 -0.025011 76 153 0
0.545607 0.257747 0.002819 76 153 0
0.120801 0.102551 0.004484 153 76 0
0.535610 0.611854 0.206263 76 153 0
-0.185153 0.539723 0.194619 76 153 0
0.527653 -0.716498 -0.014606 76 153 0
-0.626838 -0.156098 0.090569 76 153 0
0.017044 0.384911 -0.208714 153 76 0
0.042347 0.705750 0.048061 76 153 0
0.084476 -0.442731 -0.119594 153 76 0
0.051349 -0.781762 -0.088214 153 76 0
-0.034322 -0.769547 -0.180601 153 76 0
0.331480 0.205121 -0.025011 76 153 0
-0.564221 0.705750 0.037542 76 153 0
0.102539 0.478369 -0.112218 153 76 0
0.036567 -0.161632 -0.165187 153 76 0
0.228738 -0.289276 0.060256 153 76 0
0.230077 0.265761 0.047446 153 76 0
-0.598730 -0.642847 0.207293 76 153 0
0.048143 -0.302891 -0.082208 153 76 0
-0.623202 0.205730 0.038076 76 153 0
-0.512756 -0.636346 0.142186 76 153 0
-0.051971 0.531248 -0.296572 153 76 0
-0.515387 0.227194 0.206004 76 153 0
-0.509282 0.395605 0.147382 76 153 0
0.122578 -0.214312 -0.087649 153 76 0
0.489826 0.065335 -0.020484 76 153 0
0.147678 -0.298450 0.036553 153 76 0
-0.598370 0.133143 0.207519 76 153 0
0.271268 -0.585343 0.108574 76 153 0
-0.222920 0.275905 -0.481079 153 76 0
0.096188 0.189558 -0.105620 153 76 0
-0.399111 0.705755 0.161404 76 153 0
0.004966 0.532772 -0.202191 153 76 0
0.228537 -0.144218 0.060701 153 76 0
-0.044114 0.107277 -0.261452 153 76 0
0.540328 -0.374598 0.175554 76 153 0
0.274541 -0.694053 0.038250 76 153 0
0.482527 0.709329 0.165397 76 153 0
-0.099806 -0.301657 -0.258733 153 76 0
0.083335 -0.598366 -0.120956 153 76 0
0.253563 0.549476 0.200870 76 153 0
-0.163515 -0.321370 -0.334748 153 76 0
0.271268 0.247457 0.019346 76 153 0
-0.623314 0.033329 0.167954 76 153 0
-0.070859 0.237579 -0.304932 153 76 0
0.178206 0.701876 0.187294 76 153 0
0.545274 -0.098085 0.024877 76 153 0
0.229557 -0.652920 0.057087 153 76 0
-0.623568 0.647195 0.032474 76 153 0
-0.058904 0.705750 0.144698 76 153 0
-0.593155 -0.383533 0.204116 76 153 0
0.283552 -0.781762 0.184497 76 153 0
0.323774 0.337000 -0.025011 76 153 0
0.307926 -0.141704 -0.021806 76 153 0
-0.512756 0.147942 0.115065 76 153 0
-0.211012 -0.275036 -0.486332 153 76 0
0.397180 0.613669 -0.021236 76 153 0
0.541963 0.011667 0.166950 76 153 0
0.274541 0.472864 0.106445 76 153 0
0.274759 0.199550 0.167638 76 153 0
0.470837 -0.416364 0.204034 76 153 0
0.271268 -0.640063 0.112397 76 153 0
-0.218760 0.705750 0.052044 76 153 0
0.531890 0.372325 -0.024678 76 153 0
0.337083 -0.781762 0.024757 76 153 0
0.203333 0.705750 0.035084 76 153 0
-0.622624 0.207914 0.171258 76 153 0
0.534926 -0.575249 0.189977 76 153 0
-0.166303 0.247110 -0.338074 153 76 0
-0.030803 0.070163 -0.176402 153 76 0
-0.098589 0.182785 -0.257281 153 76 0
0.271268 0.022582 0.093336 76 153 0
0.394401 0.111328 -0.031243 76 0 153
-0.123641 -0.554966 -0.371361 153 76 0
-0.195381 -0.398798 -0.467682 153 76 0
0.175279 -0.613185 -0.025428 153 76 0
0.274582 0.683949 0.207725 76 153 0
0.208815 -0.439561 0.032999 153 76 0
-0.575269 -0.556742 -0.021738 76 153 0
0.126434 -0.027203 0.011206 153 76 0
0.395826 0.365695 0.204034 76 153 0
0.086381 0.000711 -0.036584 153 76 0
-0.623263 -0.432891 0.127676 76 153 0
0.542003 0.133770 0.153083 76 153 0
0.526238 0.169804 -0.024915 76 153 0
0.132111 0.708143 -0.015210 76 153 0
-0.619711 0.040818 0.000100 76 153 0
-0.538819 -0.368134 -0.025009 76 153 0
0.507174 -0.425690 -0.025011 76 153 0
-0.511712 -0.571578 0.205206 76 153 0
-0.626434 0.530818 0.197043 76 153 0
-0.538155 -0.611159 -0.025009 76 153 0
-0.115991 -0.625018 -0.358782 153 76 0
0.014253 -0.139508 -0.122644 153 76 0
0.274541 0.301315 0.099415 76 153 0
-0.447876 0.633495 0.207307 76 153 0
0.283411 0.073560 -0.024133 76 153 0
-0.563819 0.523461 -0.021739 76 153 0
0.296795 0.160425 -0.024876 76 153 0
0.455340 -0.010665 0.204034 76 153 0
-0.131705 -0.255207 -0.391708 153 76 0
0.319318 -0.526393 -0.025011 76 153 0
0.474558 0.083835 0.204034 76 153 0
0.332372 0.016377 -0.017170 76 153 0
0.065400 -0.062325 -0.061618 153 76 0
0.376133 -0.395410 0.207306 76 153 0
0.545431 -0.279150 0.016979 76 153 0
0.478814 -0.328615 -0.021406 76 153 0
-0.571683 0.644554 -0.025011 76 153 0
0.044167 -0.279074 -0.156119 153 76 0
-0.626838 0.012919 0.084475 76 153 0
-0.509483 -0.598410 0.106202 76 153 0
-0.626838 0.556152 0.020700 76 153 0
-0.509139 0.021405 -0.007027 76 153 0
-0.079555 -0.563509 -0.234570 153 76 0
0.545274 -0.682263 0.166255 76 153 0
-0.509635 0.343852 0.198552 76 153 0
-0.000622 0.322727 -0.221129 153 76 0
0.088117 0.269269 -0.115250 153 76 0
-0.626838 -0.158018 0.009819 76 153 0
0.058787 -0.582945 -0.069508 153 76 0
-0.205146 -0.159905 -0.384420 153 76 0
0.544234 0.281280 0.199033 76 153 0
-0.080681 0.247673 -0.235914 153 76 0
0.271412 -0.424741 -0.009450 76 153 0
-0.242549 0.178286 -0.429047 153 76 0
-0.045915 0.536575 -0.022945 76 153 0
0.271268 -0.062391 0.138536 76 153 0
0.440647 -0.105990 0.207307 76 153 0
0.424347 -0.259226 0.207307 76 153 0
0.249013 0.534901 0.060102 76 153 0
0.209442 -0.020531 0.079868 153 76 0
0.542001 -0.563188 0.072893 76 153 0
0.379912 -0.066821 -0.021516 76 153 0
-0.254036 0.403894 -0.442753 153 76 0
-0.626838 -0.145056 0.169486 76 153 0
0.157212 0.035963 -0.046985 153 76 0
-0.053192 -0.031099 -0.203116 153 76 0
0.292676 -0.613593 -0.015494 76 153 0
-0.626838 0.436531 0.152185 76 153 0
-0.077715 -0.697714 -0.232375 153 76 0
-0.091902 -0.032521 -0.330040 153 76 0
-0.245506 -0.104709 -0.462148 153 76 0
0.169077 0.550682 0.207088 76 153 0
-0.626838 0.414551 0.050728 76 153 0
0.296354 0.705751 0.024035 76 153 0
0.370484 -0.740394 -0.021738 76 153 0
0.316954 -0.449386 0.207833 76 153 0
-0.020060 0.199041 -0.200904 153 76 0
-0.247520 0.660648 0.207307 76 153 0
-0.215123 -0.263290 -0.396324 153 76 0
-0.084236 0.360940 -0.240156 153 76 0
0.443395 0.237588 -0.021738 76 153 0
-0.360316 0.532287 0.198222 76 153 0
0.509553 -0.036354 -0.021790 76 153 0
0.139633 0.427400 0.026954 153 76 0
-0.053893 0.530970 0.187335 76 153 0
0.408503 0.428211 0.204034 76 153 0
-0.061576 -0.372406 -0.282286 153 76 0
0.531699 -0.781762 0.150075 76 153 0
-0.186995 -0.495984 -0.457676 153 76 0
-0.075589 -0.617066 -0.229838 153 76 0
-0.334066 0.615991 0.204034 76 153 0
-0.623565 -0.672130 0.100982 76 153 0
0.023474 0.225664 -0.180808 153 76 0
-0.571977 -0.233873 -0.025011 76 153 0
0.542001 0.267786 0.098356 76 153 0
-0.006702 -0.213310 -0.147646 153 76 0
-0.509149 -0.315950 0.183725 76 153 0
-0.026246 0.122047 -0.208286 153 76 0
-0.119812 0.530457 -0.377518 153 76 0
-0.623572 -0.066282 0.157556 76 153 0
0.281133 0.494777 0.206121 76 153 0
0.118091 -0.741469 0.001251 153 76 0
-0.188451 0.426151 -0.459414 153 76 0
0.492559 -0.619945 0.204034 76 153 0
0.307461 -0.020449 0.207559 76 153 0
0.072003 0.311827 -0.053739 153 76 0
-0.012764 -0.685435 -0.154879 153 76 0
-0.095694 0.547846 -0.024940 76 153 0
-0.150663 0.251509 -0.414327 153 76 0
0.519147 -0.606177 -0.019607 76 153 0
-0.049455 -0.141509 -0.198656 153 76 0
-0.626838 0.083096 0.156367 76 153 0
0.166971 -0.122262 0.059572 153 76 0
-0.093518 0.476598 -0.346145 153 76 0
0.274867 -0.493488 0.028780 76 153 0
0.539739 0.062797 -0.021596 76 153 0
0.357429 -0.176385 0.204034 76 153 0
0.163723 -0.422300 -0.039217 153 76 0
-0.212246 -0.751264 -0.392891 153 76 0
0.287496 -0.645698 0.207653 76 153 0
0.500136 -0.781762 0.088574 76 153 0
-0.142642 0.596966 0.204034 76 153 0
0.379488 -0.768193 0.207215 76 153 0
0.377962 0.066155 0.207307 76 153 0
0.015003 0.705750 0.125192 76 153 0
0.011867 0.487872 -0.220403 153 76 0
-0.056286 -0.388249 -0.206807 153 76 0
-0.509483 -0.474685 0.101932 76 153 0
0.481229 -0.526669 -0.025011 76 153 0
0.545279 0.664788 0.197658 76 153 0
-0.112949 0.458753 -0.274414 153 76 0
0.274541 -0.756766 0.091028 76 153 0
0.521621 0.702834 0.037952 76 153 0
0.151444 0.530635 0.123029 76 153 0
0.244211 0.579063 -0.021617 76 153 0
0.545274 -0.624701 0.088704 76 153 0
-0.512756 -0.320117 0.033708 76 153 0
0.302133 0.587393 0.204034 76 153 0
0.226739 -0.212350 0.036424 153 76 0
-0.002888 -0.585437 -0.223833 153 76 0
-0.200768 -0.565791 -0.474110 153 76 0
0.545274 0.555763 0.019772 76 153 0
-0.512756 -0.400635 0.105764 76 153 0
0.191512 0.139354 0.080715 153 76 0
-0.292022 0.530639 0.182416 76 153 0
0.307604 0.653749 -0.021740 76 153 0
-0.187166 0.374342 -0.457881 153 76 0
0.271268 -0.386240 0.034356 76 153 0
-0.169122 0.134750 -0.341438 153 76 0
-0.512756 -0.699071 0.082612 76 153 0
-0.092695 -0.038222 -0.250248 153 76 0
0.027083 -0.490766 -0.107336 153 76 0
0.246858 0.534908 0.142718 76 153 0
0.277121 -0.225963 0.205152 76 153 0
-0.515564 -0.471104 0.189267 76 153 0
-0.623565 -0.520560 0.075554 76 153 0
-0.062801 -0.228035 -0.283748 153 76 0
-0.500155 0.517389 0.017140 76 153 0
-0.615385 -0.530169 -0.023541 76 153 0
-0.512756 0.167817 0.042692 76 153 0
-0.167978 -0.719105 -0.340073 153 76 0
0.213796 0.668225 -0.025011 76 153 0
-0.289747 0.704775 0.203296 76 153 0
-0.193955 -0.112897 -0.371067 153 76 0
-0.537188 0.184384 0.207302 76 153 0
-0.038849 -0.248631 -0.243005 153 76 0
0.495036 -0.526738 0.204034 76 153 0
0.074933 0.234517 -0.050243 153 76 0
-0.512639 0.514846 0.093197 76 153 0
0.545582 0.326434 0.152266 76 153 0
0.420133 -0.354562 -0.025011 76 153 0
-0.623565 0.465208 0.059734 76 153 0
0.274541 -0.361150 0.100611 76 153 0
0.106917 -0.242059 -0.012081 153 76 0
0.271268 0.296456 0.021140 76 153 0
0.088181 0.709023 0.060859 76 153 0
0.542001 0.175584 0.125468 76 153 0
-0.055002 0.455285 -0.205275 153 76 0
0.148250 0.021155 0.037235 153 76 0
0.497220 0.556007 0.204034 76 153 0
0.382713 0.456430 -0.025011 76 153 0
-0.218219 0.476517 -0.400017 153 76 0
-0.564372 -0.020316 0.204034 76 153 0
0.080013 0.533908 0.140541 76 153 0
-0.572530 0.465901 0.207477 76 153 0
-0.121893 -0.109948 -0.365824 153 76 0
0.544428 -0.342705 -0.014172 76 153 0
0.111327 -0.623607 -0.087557 153 76 0
0.319846 0.106187 -0.020117 76 153 0
0.110158 0.585467 -0.021276 76 153 0
0.497523 -0.681228 -0.025011 76 153 0
0.086598 -0.117330 -0.117063 153 76 0
0.002626 -0.206585 -0.193519 153 76 0
0.010440 0.417311 -0.127194 153 76 0
-0.036071 -0.061314 -0.239691 153 76 0
0.040504 0.534382 0.088499 76 153 0
-0.123911 -0.295373 -0.368232 153 76 0
-0.571864 0.705750 0.084050 76 153 0
0.136343 0.268397 0.023028 153 76 0
0.180166 -0.586626 0.057010 153 76 0
0.029403 -0.332841 -0.173734 153 76 0
0.274541 -0.408656 0.080040 76 153 0
-0.045013 -0.515245 -0.193357 153 76 0
-0.226265 -0.014892 -0.409617 153 76 0
-0.558183 -0.154207 -0.025011 76 153 0
0.545435 0.567367 0.149389 76 153 0
-0.509469 -0.246147 0.167515 76 153 0
0.542004 0.654166 0.128150 76 153 0
-0.626647 0.392263 -0.005180 76 153 0
-0.131127 -0.781762 -0.343669 153 76 0
-0.626838 -0.634926 0.004830 76 153 0
0.141350 0.198851 -0.065911 153 76 0
-0.199004 0.381992 -0.377092 153 76 0
-0.122031 0.166313 -0.365988 153 76 0
0.227964 0.490330 0.038780 153 76 0
0.174098 0.353084 0.062096 153 76 0
0.532684 0.491692 0.193233 76 153 0
-0.149249 0.117205 -0.412640 153 76 0
-0.178956 0.022615 -0.448085 153 76 0
0.132170 -0.781762 -0.043922 153 76 0
-0.057986 0.289601 -0.208836 153 76 0
0.145383 0.107951 -0.061099 153 76 0
-0.446950 0.709311 0.021696 76 153 0
-0.607020 -0.133629 -0.024913 76 153 0
0.206400 -0.535787 0.035022 153 76 0
-0.626838 -0.226917 0.016322 76 153 0
-0.161842 -0.511971 -0.332751 153 76 0
0.029893 -0.670669 -0.103983 153 76 0
-0.050553 -0.324393 -0.269135 153 76 0
-0.115964 -0.454713 -0.358750 153 76 0
-0.563820 -0.734061 0.207307 76 153 0
-0.146681 -0.681552 -0.409577 153 76 0
0.271469 -0.771236 -0.002975 76 153 0
0.004999 -0.454315 -0.133684 153 76 0
-0.626838 0.337314 0.151748 76 153 0
0.188272 -0.199661 -0.009925 153 76 0
-0.170137 -0.043364 -0.342649 153 76 0
0.271268 -0.048895 0.007931 76 153 0
-0.626837 -0.704392 0.177960 76 153 0
-0.509465 0.145289 0.167743 76 153 0
0.311041 -0.087297 0.204261 76 153 0
0.138843 -0.436628 0.026011 153 76 0
0.274541 0.115712 0.047017 76 153 0
-0.592429 0.659417 0.204111 76 153 0
-0.528806 -0.614585 0.201349 76 153 0
0.096888 0.062275 -0.024047 153 76 0
-0.250843 0.360051 -0.457676 153 76 0
-0.577405 0.709022 0.163299 76 153 0
-0.509268 0.297618 0.131776 76 153 0
0.482564 -0.282662 0.207307 76 153 0
0.065432 0.674696 -0.025011 76 153 0
0.340515 0.705750 0.037636 76 153 0
-0.578919 -0.781762 0.091538 76 153 0
0.145758 0.180741 0.034262 153 76 0
-0.510816 -0.093629 0.203797 76 153 0
0.423268 0.369131 -0.025011 76 153 0
0.241448 0.709356 -0.000383 76 153 0
0.271268 -0.709953 0.136011 76 153 0
0.311100 -0.259013 0.207485 76 153 0
0.274541 0.430058 0.138445 76 153 0
0.271268 -0.142386 0.085645 76 153 0
0.507402 0.174538 0.207307 76 153 0
-0.002963 -0.013766 -0.195893 153 76 0
-0.512756 -0.226957 0.045274 76 153 0
-0.197591 -0.300346 -0.375405 153 76 0
0.440871 0.240681 0.204034 76 153 0
-0.509371 0.111846 0.013945 76 153 0
-0.257975 -0.309142 -0.451698 153 76 0
0.518281 0.231329 -0.024992 76 153 0
0.032354 -0.497840 -0.170214 153 76 0
0.271268 0.050174 0.175150 76 153 0
0.190706 -0.701078 -0.007022 153 76 0
-0.146186 -0.132590 -0.314072 153 76 0
-0.154089 0.033680 -0.323500 153 76 0
-0.509386 -0.149321 0.108145 76 153 0
-0.551612 -0.459638 -0.025011 76 153 0
-0.023308 -0.054651 -0.167460 153 76 0
-0.623565 0.281565 0.145387 76 153 0
-0.516353 0.096551 0.190827 76 153 0
0.383537 0.266685 0.204034 76 153 0
0.545914 -0.505292 -0.009624 76 153 0
0.186071 -0.367340 0.052061 153 76 0
-0.325654 0.709522 0.025151 76 153 0
-0.625205 0.418355 0.199233 76 153 0
0.497836 0.605358 -0.021738 76 153 0
0.459222 0.028362 -0.017581 76 153 0
-0.018838 -0.403417 -0.162125 153 76 0
0.542012 0.330885 0.020212 76 153 0
-0.466769 0.591531 -0.021738 76 153 0
0.545274 -0.220569 0.097411 76 153 0
0.090286 0.685036 0.207129 76 153 0
-0.379784 0.666763 0.207307 76 153 0
-0.626743 0.266079 -0.001019 76 153 0
0.217745 0.229880 0.075462 153 76 0
0.449116 0.290740 -0.021738 76 153 0
0.281539 -0.387034 0.206219 76 153 0
0.138547 0.064138 0.025658 153 76 0
0.475324 -0.686079 0.207307 76 153 0
-0.512757 -0.543835 0.025928 76 153 0
0.131577 0.344785 -0.077571 153 76 0
0.061413 0.137673 -0.066375 153 76 0
0.289473 0.494101 -0.024730 76 153 0
-0.083113 0.350651 -0.319554 153 76 0
-0.235558 -0.433294 -0.420705 153 76 0
0.271268 0.205752 0.077392 76 153 0
-0.180436 -0.322434 -0.449851 153 76 0
-0.227679 0.139215 -0.411304 153 76 0
-0.201400 0.705919 -0.021094 76 153 0
-0.615696 -0.568208 0.206205 76 153 0
0.093143 0.709122 0.131626 76 153 0
-0.561777 -0.322660 0.207355 76 153 0
0.148130 -0.093750 -0.057821 153 76 0
-0.512756 -0.322872 0.105571 76 153 0
0.084127 0.131778 -0.120011 153 76 0
-0.013790 0.154577 -0.156103 153 76 0
-0.079788 -0.219777 -0.234848 153 76 0
0.542001 0.238721 0.046380 76 153 0
-0.258881 0.518422 -0.448534 153 76 0
-0.182876 0.589478 -0.021695 76 153 0
-0.507046 0.682087 -0.019080 76 153 0
-0.179336 -0.224967 -0.353625 153 76 0
0.109943 -0.032159 -0.089208 153 76 0
0.184663 -0.278362 0.053241 153 76 0
-0.218707 -0.543202 -0.400599 153 76 0
0.506287 0.444575 -0.021772 76 153 0
-0.141516 -0.375890 -0.308500 153 76 0
0.388445 -0.274462 -0.021738 76 153 0
0.308747 -0.781762 0.142083 76 153 0
0.542001 0.465590 0.055620 76 153 0
0.169039 0.605798 0.204034 76 153 0
0.378699 -0.327328 -0.021738 76 153 0
-0.252453 0.533908 0.038060 76 153 0
-0.622046 -0.056874 0.011687 76 153 0
0.186458 0.709049 0.087488 76 153 0
-0.013630 -0.263176 -0.155912 153 76 0
0.183186 -0.679618 0.054479 153 76 0
-0.509141 -0.281266 -0.005358 76 153 0
-0.164343 0.702456 0.203998 76 153 0
-0.623316 0.501053 0.023333 76 153 0
0.061409 0.353622 -0.066380 153 76 0
-0.623232 -0.336056 0.130903 76 153 0
0.162114 -0.225041 0.053777 153 76 0
-0.599209 -0.280316 0.202839 76 153 0
-0.131240 0.364130 -0.391153 153 76 0
-0.328408 0.570523 -0.021753 76 153 0
0.274874 -0.292485 0.066523 76 153 0
0.384017 -0.075181 0.207792 76 153 0
0.545274 -0.504397 0.095771 76 153 0
-0.520230 0.463239 0.207164 76 153 0
-0.087099 0.058857 -0.243571 153 76 0
-0.513101 -0.487344 -0.021975 76 153 0
0.545577 -0.549753 0.020955 76 153 0
-0.510553 0.444351 -0.018512 76 153 0
-0.062074 0.629979 0.207639 76 153 0
-0.377191 0.578930 -0.021745 76 153 0
0.199052 0.168471 0.041181 153 76 0
0.172821 -0.066848 0.066921 153 76 0
0.542001 -0.377662 0.083179 76 153 0
0.099637 -0.369745 -0.101505 153 76 0
0.401268 -0.567540 -0.025011 76 153 0
-0.079877 0.065682 -0.315693 153 76 0
0.271297 -0.106496 0.185546 76 153 0
-0.576132 -0.054155 -0.025011 76 153 0
0.337320 -0.234099 -0.025011 76 153 0
-0.558016 -0.663919 0.204035 76 153 0
0.032362 -0.074154 -0.101037 153 76 0
-0.074694 -0.338571 -0.228771 153 76 0
0.545773 -0.189275 0.058184 76 153 0
0.542005 0.470713 0.154795 76 153 0
-0.621765 -0.690137 0.010239 76 153 0
0.542001 -0.133730 0.093920 76 153 0
0.350617 0.361742 0.204034 76 153 0
-0.236134 -0.775419 -0.421393 153 76 0
-0.619130 0.686786 0.159375 76 153 0
-0.155991 0.088009 -0.325770 153 76 0
-0.595066 0.709398 -0.006333 76 153 0
0.496469 0.461496 0.204034 76 153 0
-0.196156 -0.746611 -0.468608 153 76 0
-0.031575 0.530635 0.032570 76 153 0
0.106858 0.549672 0.206974 76 153 0
-0.252045 -0.352614 -0.456668 153 76 0
-0.235832 -0.217763 -0.470256 153 76 0
-0.556344 0.377429 0.207394 76 153 0
-0.066880 -0.749956 -0.219447 153 76 0
0.271268 -0.471448 0.179851 76 153 0
-0.509483 -0.546894 0.133649 76 153 0
0.424782 -0.736913 -0.021738 76 153 0
-0.112806 0.709220 0.009778 76 153 0
-0.589676 0.287701 0.207639 76 153 0
0.007792 0.672417 0.204068 76 153 0
0.271374 -0.000713 0.191750 76 153 0
0.233008 0.654513 0.207639 76 153 0
0.326179 0.705750 0.136230 76 153 0
-0.512757 -0.454871 0.019520 76 153 0
0.074749 -0.478300 -0.050462 153 76 0
-0.092261 -0.093405 -0.330469 153 76 0
-0.000957 0.019237 -0.140791 153 76 0
-0.259462 -0.692775 -0.450451 153 76 0
0.542001 -0.324868 0.092561 76 153 0
-0.193896 0.256459 -0.370996 153 76 0
-0.067664 -0.428434 -0.220382 153 76 0
0.545274 0.314576 0.096392 76 153 0
0.542001 0.608778 0.109180 76 153 0
-0.623565 -0.718289 0.089680 76 153 0
0.278870 0.342020 0.000982 76 153 0
0.159953 0.234444 0.051198 153 76 0
0.196407 0.306559 0.043398 153 76 0
-0.108786 0.383709 -0.269447 153 76 0
-0.115174 0.006472 -0.357807 153 76 0
0.175458 0.328101 -0.025214 153 76 0
0.271268 0.181248 0.010789 76 153 0
0.022242 -0.703349 -0.208025 153 76 0
0.542001 -0.726883 0.093159 76 153 0
0.230163 0.396540 0.047922 153 76 0
-0.512756 0.054178 0.133771 76 153 0
0.219406 0.538960 -0.006822 76 153 0
0.334896 -0.394215 -0.021738 76 153 0
0.183006 0.441099 0.054630 153 76 0
0.489185 0.561197 -0.025011 76 153 0
-0.509137 -0.729574 -0.008401 76 153 0
0.163362 0.479207 -0.039647 153 76 0
-0.133401 0.432845 -0.393731 153 76 0
-0.216762 0.530635 0.080192 76 153 0
-0.519080 -0.178828 -0.024844 76 153 0
0.309843 0.133203 0.207511 76 153 0
0.507372 -0.745042 0.204081 76 153 0
-0.367965 0.581302 0.204035 76 153 0
-0.626741 -0.615891 0.186541 76 153 0
-0.017553 -0.543815 -0.160593 153 76 0
-0.459398 0.530643 0.027450 76 153 0
0.395680 0.703056 -0.022353 76 153 0
-0.509268 -0.678924 0.008905 76 153 0
0.283125 -0.177258 -0.023118 76 153 0
0.128812 0.339589 0.014043 153 76 0
0.087377 0.532772 -0.070365 153 76 0
0.542001 0.516438 0.094472 76 153 0
0.385622 0.119351 0.204034 76 153 0
-0.508877 0.604144 0.207515 76 153 0
0.075670 -0.619539 -0.049364 153 76 0
-0.591076 -0.497340 0.207307 76 153 0
0.188601 0.009903 0.049940 153 76 0
0.411171 -0.413187 -0.021738 76 153 0
-0.081079 0.148669 -0.236389 153 76 0
0.163823 -0.037471 -0.039097 153 76 0
-0.093001 0.148125 -0.331351 153 76 0
0.153517 -0.485442 -0.051394 153 76 0
0.545274 -0.433613 0.101988 76 153 0
-0.609353 0.598852 0.207584 76 153 0
-0.509483 0.031527 0.064575 76 153 0
-0.620896 -0.373736 0.005759 76 153 0
0.177175 -0.514740 0.059517 153 76 0
0.348916 0.192681 0.204034 76 153 0
0.271280 -0.124195 0.002071 76 153 0
0.418321 0.019934 -0.032549 76 0 153
0.147158 -0.659262 0.035933 153 76 0
-0.018133 -0.734688 -0.161285 153 76 0
-0.125453 -0.682665 -0.289334 153 76 0
-0.025182 0.362633 -0.169696 153 76 0
0.093917 0.091574 -0.108330 153 76 0
-0.509035 -0.031903 0.089290 76 153 0
-0.356629 0.533908 0.110419 76 153 0
0.366331 0.705750 0.106698 76 153 0
-0.078435 0.483486 -0.233234 153 76 0
0.063854 0.350537 -0.144199 153 76 0
0.321072 -0.776999 0.204818 76 153 0
-0.002959 0.705750 0.035253 76 153 0
0.434025 -0.265034 -0.021403 76 153 0
-0.282447 0.530635 0.137571 76 153 0
-0.623232 -0.094674 0.083666 76 153 0
0.195911 0.474679 -0.000812 153 76 0
-0.413628 0.707329 -0.017896 76 153 0
-0.001437 -0.422491 -0.197172 153 76 0
0.545274 0.087706 0.156843 76 153 0
0.498211 0.318594 -0.021738 76 153 0
0.545582 0.119648 0.195599 76 153 0
-0.193488 0.500343 -0.465424 153 76 0
-0.049102 -0.474900 -0.267403 153 76 0
0.506155 0.709023 0.077276 76 153 0
0.362118 -0.781762 0.121879 76 153 0
0.274531 -0.228496 0.158173 76 153 0
-0.159596 -0.410493 -0.424985 153 76 0
-0.077633 0.645326 -0.021630 76 153 0
0.249285 0.709470 0.149170 76 153 0
-0.597219 -0.057639 0.203821 76 153 0
0.111414 0.291641 -0.087453 153 76 0
0.168197 0.283574 -0.033878 153 76 0
0.545274 -0.475385 0.058361 76 153 0
0.478468 0.404324 0.207805 76 153 0
-0.512756 0.207726 0.122489 76 153 0
-0.318686 0.709023 0.100550 76 153 0
0.271268 0.283255 0.167236 76 153 0
0.271268 -0.302904 0.152095 76 153 0
0.386757 -0.550904 0.207307 76 153 0
0.137206 -0.205623 0.024058 153 76 0
-0.595371 0.501687 0.207639 76 153 0
0.120021 -0.102300 0.003554 153 76 0
-0.030092 0.048458 -0.212874 153 76 0
-0.204514 -0.506556 -0.383665 153 76 0
-0.258677 -0.045275 -0.451109 153 76 0
0.274961 0.146306 0.141876 76 153 0
-0.623565 0.491155 0.097075 76 153 0
0.077910 -0.302264 -0.046692 153 76 0
-0.336432 0.664571 -0.021401 76 153 0
-0.626838 0.263807 0.100089 76 153 0
0.484116 0.215667 0.207307 76 153 0
-0.459620 0.709210 0.176092 76 153 0
-0.134473 0.530635 0.164140 76 153 0
0.274905 0.058296 0.128056 76 153 0
-0.626838 -0.248722 0.151426 76 153 0
-0.090620 -0.781762 -0.249497 153 76 0
-0.623043 0.574018 -0.018760 76 153 0
0.545482 0.153111 0.009266 76 153 0
-0.191587 0.308618 -0.463156 153 76 0
-0.606627 0.225220 0.207456 76 153 0
-0.090020 0.542039 0.206111 76 153 0
-0.247120 -0.612945 -0.460795 153 76 0
0.044744 -0.219751 -0.086263 153 76 0
0.202373 -0.358928 0.006899 153 76 0
-0.252818 0.633665 -0.021253 76 153 0
0.274845 -0.206431 0.018215 76 153 0
0.414901 -0.697552 0.204034 76 153 0
-0.623253 0.604849 0.017915 76 153 0
0.542001 0.195989 0.049262 76 153 0
0.088752 0.624403 0.207626 76 153 0
-0.088585 0.534589 0.110949 76 153 0
-0.426429 0.532547 0.199458 76 153 0
0.221968 -0.519370 0.071479 153 76 0
-0.119534 0.638718 -0.021496 76 153 0
0.271268 -0.626411 0.021785 76 153 0
0.354980 -0.781762 -0.016525 76 153 0
0.074296 0.489123 -0.145917 153 76 0
-0.013254 0.594291 0.207400 76 153 0
0.545738 -0.381777 0.039240 76 153 0
0.226368 0.136966 0.035709 153 76 0
-0.193448 0.532772 -0.433741 153 76 0
0.170438 0.123187 -0.031204 153 76 0
0.145816 0.607377 -0.021739 76 153 0
-0.138273 -0.175226 -0.304630 153 76 0
-0.036411 -0.104413 -0.240097 153 76 0
0.471482 -0.447436 -0.025011 76 153 0
0.451293 -0.674068 -0.021738 76 153 0
0.271268 0.352953 0.179831 76 153 0
-0.549059 0.471818 -0.021751 76 153 0
0.292637 0.222316 0.207649 76 153 0
-0.168802 -0.575401 -0.341056 153 76 0
0.349972 0.144562 0.207307 76 153 0
-0.295606 0.599858 0.204034 76 153 0
-0.541066 0.294605 0.203338 76 153 0
-0.338264 0.662930 0.207307 76 153 0
0.287732 -0.260458 -0.012056 76 153 0
-0.142877 0.367761 -0.310123 153 76 0
0.271268 -0.093119 0.108610 76 153 0
-0.206613 0.633333 -0.021406 76 153 0
-0.020714 0.456774 -0.164365 153 76 0
-0.611520 -0.429058 0.196241 76 153 0
0.545399 -0.026911 0.058331 76 153 0
0.271360 -0.536946 0.190651 76 153 0
-0.197919 -0.581115 -0.375797 153 76 0
0.053959 -0.744341 -0.170182 153 76 0
0.542012 -0.192284 0.162767 76 153 0
0.541606 -0.174536 0.017255 76 153 0
0.144491 -0.576017 0.032750 153 76 0
0.184615 -0.657115 -0.014290 153 76 0
-0.031710 0.296669 -0.177485 153 76 0
-0.077258 -0.612978 -0.312567 153 76 0
0.408716 -0.428555 0.207307 76 153 0
0.424466 0.456457 -0.021738 76 153 0
-0.623565 0.603184 0.101373 76 153 0
-0.161688 0.533941 0.071793 76 153 0
-0.603652 -0.313274 -0.017697 76 153 0
-0.069427 -0.146691 -0.303224 153 76 0
0.196621 0.180072 0.000036 153 76 0
-0.089906 -0.673495 -0.341835 153 76 0
0.010608 0.105459 -0.183995 153 76 0
-0.559091 0.070766 0.204035 76 153 0
-0.617022 -0.218297 -0.022900 76 153 0
0.274541 -0.568163 0.043518 76 153 0
0.131005 -0.666931 -0.078254 153 76 0
-0.531791 0.549567 -0.021064 76 153 0
-0.623565 -0.433563 0.086360 76 153 0
0.184110 0.373643 -0.014892 153 76 0
-0.065436 -0.015477 -0.286892 153 76 0
-0.265328 0.692849 -0.024908 76 153 0
0.264694 0.534717 0.021948 76 153 0
0.305777 -0.177929 0.204396 76 153 0
0.221859 -0.610681 0.071603 153 76 0
0.015856 -0.663347 -0.215645 153 76 0
-0.391330 0.530635 0.006969 76 153 0
-0.221922 -0.684542 -0.404436 153 76 0
0.099952 -0.698416 -0.115305 153 76 0
0.198260 -0.039467 0.001991 153 76 0
-0.040893 0.150209 -0.245444 153 76 0
0.130081 -0.475394 0.015557 153 76 0
0.503932 -0.369727 -0.021705 76 153 0
0.443169 0.709023 0.063359 76 153 0
0.545622 0.408021 0.000482 76 153 0
0.273408 -0.317955 0.199818 76 153 0
0.172037 0.534539 0.082467 76 153 0
0.034487 -0.535225 -0.098502 153 76 0
-0.003853 0.495320 -0.144247 153 76 0
-0.084897 0.709340 0.182562 76 153 0
0.265680 0.517369 0.175382 76 153 0
-0.623233 0.127615 0.049249 76 153 0
0.452595 -0.606994 0.204034 76 153 0
-0.512756 -0.093484 0.032628 76 153 0
-0.623565 -0.364094 0.078766 76 153 0
-0.133873 0.084085 -0.394294 153 76 0
0.274541 0.449655 0.059895 76 153 0
-0.136053 -0.369017 -0.396895 153 76 0
-0.180551 0.533813 0.006717 76 153 0
0.208887 -0.207727 0.080008 153 76 0
0.275396 -0.536050 -0.018463 76 153 0
0.051464 0.532772 -0.107158 153 76 0
0.545478 -0.676911 0.009468 76 153 0
0.442173 0.595873 0.204034 76 153 0
0.438758 0.486941 0.204034 76 153 0
0.230391 -0.778178 0.049184 153 76 0
0.541560 -0.665767 0.204178 76 153 0
0.461131 0.336995 0.207639 76 153 0
-0.184227 -0.282173 -0.454374 153 76 0
-0.626838 -0.208322 0.106022 76 153 0
-0.034686 -0.316747 -0.232454 153 76 0
-0.562767 0.254598 -0.021435 76 153 0
0.320693 -0.554464 0.207625 76 153 0
0.145188 -0.292935 -0.061332 153 76 0
0.219325 0.511182 0.074475 153 76 0
-0.174823 0.534278 0.155718 76 153 0
0.308250 -0.653483 -0.021804 76 153 0
0.271268 -0.584006 0.172026 76 153 0
0.272541 -0.014407 -0.013396 76 153 0
-0.512725 0.467221 0.014908 76 153 0
-0.170564 -0.547991 -0.438072 153 76 0
0.342016 -0.736169 0.207307 76 153 0
0.348784 0.579031 0.207760 76 153 0
0.220800 -0.058782 0.072803 153 76 0
0.336601 0.704645 0.175357 76 153 0
0.271268 -0.731483 0.173356 76 153 0
-0.204310 0.555288 -0.025009 76 153 0
0.210370 0.061829 0.079634 153 76 0
0.461524 0.438137 -0.021738 76 153 0
-0.094791 0.530635 0.069922 76 153 0
-0.025868 0.532772 -0.175981 153 76 0
-0.130964 0.709226 0.091371 76 153 0
-0.595076 0.425094 -0.025011 76 153 0
0.332141 0.376904 -0.025011 76 153 0
0.457034 -0.487777 -0.021612 76 153 0
-0.596156 -0.781762 0.174546 76 153 0
0.188777 0.108837 0.049793 153 76 0
0.382793 0.248493 -0.025011 76 153 0
-0.254149 -0.544339 -0.454905 153 76 0
0.336103 0.058549 0.207307 76 153 0
0.424708 0.081114 0.207674 76 153 0
0.420191 -0.781762 0.032605 76 153 0
0.220962 -0.423503 0.072619 153 76 0
-0.132981 0.171790 -0.298316 153 76 0
0.354004 0.310256 -0.025011 76 153 0
-0.022355 0.344723 -0.247061 153 76 0
-0.509483 0.350578 0.029944 76 153 0
0.159940 0.709028 0.150186 76 153 0
0.271268 -0.387343 0.166822 76 153 0
-0.185623 0.222897 -0.456040 153 76 0
-0.626838 -0.289538 0.019604 76 153 0
0.486055 -0.170956 0.204034 76 153 0
0.542014 -0.269306 0.165206 76 153 0
-0.626838 0.224509 0.080555 76 153 0
0.142795 -0.394114 0.030726 153 76 0
-0.626838 0.293020 0.070470 76 153 0
0.271268 0.021312 0.033859 76 153 0
0.328167 -0.484026 -0.025011 76 153 0
0.274541 -0.666620 0.142437 76 153 0
-0.251359 0.059282 -0.439559 153 76 0
0.154116 0.532772 0.008577 153 76 0
0.542014 0.366825 0.165210 76 153 0
0.271268 -0.534211 0.021503 76 153 0
0.416145 -0.049379 -0.021328 76 153 0
0.006990 0.028038 -0.188312 153 76 0
0.071590 -0.081795 -0.134970 153 76 0
-0.075359 0.707786 -0.016281 76 153 0
0.004842 0.440050 -0.228786 153 76 0
0.031129 0.534050 0.026391 76 153 0
