ply
format ascii 1.0
element vertex 1271
property float x
property float y
property float z
property uchar red
property uchar green
property uchar blue
end_header
-0.057154 0.634827 -0.299800 0 255 0
-0.145577 -0.359611 -0.297934 153 0 76
-0.158165 0.355163 -0.279957 153 0 76
-0.163504 0.427065 -0.267205 0 255 0
-0.135856 -0.658123 -0.369347 76 0 153
-0.042653 0.552499 0.264966 0 255 0
-0.168226 -0.290217 -0.094034 153 0 76
0.190799 0.026889 -0.121568 153 0 76
0.120137 -0.081644 0.011152 0 127 127
0.009800 -0.091432 0.951087 76 153 0
0.143666 -0.591523 -0.312892 153 0 76
-0.166060 0.634827 -0.211970 0 255 0
0.234439 -0.655514 -0.244587 76 0 153
0.016973 0.590890 0.015177 0 255 0
-0.145949 -0.476195 -0.057749 153 0 76
-0.094278 0.344801 -0.011972 153 0 76
0.165861 -0.221473 -0.285782 153 0 76
-0.177815 -0.023558 -0.238098 153 0 76
0.087988 0.634827 -0.163046 0 255 0
0.035902 -0.138451 0.236924 0 127 127
-0.134742 0.431963 -0.044845 0 255 0
-0.185291 -0.023882 -0.208048 153 0 76
0.063465 -0.012497 0.006916 153 0 76
-0.130180 -0.679633 -0.066980 76 0 153
-0.044903 0.523973 0.011084 0 255 0
-0.168620 -0.260686 -0.260274 153 0 76
-0.140563 -0.522376 -0.304220 153 0 76
-0.179550 0.506076 -0.124318 0 255 0
0.115314 -0.002651 0.486941 0 127 127
-0.085092 0.307798 -0.006930 153 0 76
-0.107088 -0.051294 0.364001 0 127 127
0.012141 -0.094221 0.887097 0 127 127
0.102575 0.576525 -0.345741 0 255 0
-0.105292 -0.002441 0.788189 0 127 127
0.108312 -0.102187 0.398971 0 127 127
-0.048198 -0.608419 -0.363003 153 0 76
-0.103518 -0.085289 0.216329 0 127 127
0.011694 -0.433371 -0.370913 153 0 76
-0.002529 0.238411 -0.370684 153 0 76
-0.181679 0.051999 -0.223676 153 0 76
-0.030370 -0.108950 0.788137 0 127 127
-0.187137 -0.042946 -0.186955 153 0 76
-0.102667 -0.679633 -0.339926 76 0 153
0.083233 0.041702 0.467626 0 127 127
-0.133857 0.634827 -0.282539 0 255 0
0.029799 -0.679633 -0.224324 76 0 153
0.125320 -0.119225 -0.025463 153 0 76
-0.098181 -0.284126 -0.340446 153 0 76
0.014926 0.375644 -0.131472 153 0 76
-0.002859 -0.643453 -0.303845 153 0 76
0.039250 0.035009 0.343487 0 127 127
-0.153066 -0.664034 0.000071 76 0 153
-0.120899 -0.643453 -0.202437 153 0 76
-0.055407 0.290724 -0.361071 153 0 76
-0.083730 0.375644 -0.199893 153 0 76
-0.152014 0.473727 -0.162109 0 255 0
0.128941 -0.271422 -0.027999 153 0 76
-0.058344 -0.124101 0.505007 0 127 127
-0.165079 -0.533557 -0.267868 153 0 76
-0.014152 -0.116896 0.639618 0 127 127
-0.000053 -0.029888 0.015749 153 0 76
0.039608 0.485457 -0.324663 0 255 0
-0.090510 -0.679633 -0.276275 76 0 153
-0.026806 -0.643453 -0.355433 153 0 76
-0.071236 -0.470137 -0.354683 153 0 76
-0.175345 0.594702 -0.110457 0 255 0
0.029289 0.494978 0.475676 0 255 0
0.010541 0.038546 0.409029 0 127 127
-0.175652 0.620192 -0.243926 0 255 0
0.198829 -0.206262 -0.187899 153 0 76
0.103284 0.634827 -0.221572 0 255 0
-0.000359 0.556485 -0.223767 0 255 0
-0.144233 0.280148 -0.299854 153 0 76
0.036539 0.036656 0.374283 0 127 127
-0.102144 -0.078306 0.449834 0 127 127
0.136334 0.042396 -0.320224 153 0 76
-0.113610 -0.234846 -0.329643 153 0 76
0.055468 -0.101728 0.923477 76 153 0
0.063049 0.048181 0.589619 0 127 127
-0.104895 -0.092877 -0.028651 0 127 127
-0.057587 0.022595 0.111107 0 127 127
-0.152694 0.408299 -0.208113 0 255 0
0.141535 0.504029 -0.154738 0 255 0
-0.117169 0.508370 -0.225084 0 255 0
-0.183148 -0.427801 -0.136957 153 0 76
-0.143625 0.060627 -0.054430 153 0 76
0.093167 0.634827 -0.111680 0 255 0
-0.079222 -0.551391 -0.004193 153 0 76
0.110422 0.634827 -0.151103 0 255 0
-0.051639 0.170354 0.006929 153 0 76
0.242540 -0.655321 -0.150545 76 0 153
-0.051050 -0.171217 -0.362239 153 0 76
-0.184954 0.425243 -0.147072 0 255 0
-0.186822 0.599713 -0.166040 0 255 0
0.055397 0.556438 0.493016 0 255 0
-0.154088 0.593941 -0.287198 0 255 0
0.116538 0.003824 0.699678 0 127 127
0.034863 0.201139 -0.368886 153 0 76
0.118364 -0.364331 -0.020592 153 0 76
0.065209 0.013287 -0.062674 0 127 127
0.108713 -0.088470 0.637218 0 127 127
-0.090133 0.040116 0.780294 0 127 127
0.065292 0.634827 -0.180818 0 255 0
0.132624 0.427043 -0.047350 0 255 0
0.107407 0.017899 0.497133 0 127 127
-0.086821 -0.639132 -0.256338 153 0 76
-0.011831 -0.679633 -0.330515 76 0 153
-0.144013 0.019780 -0.054984 153 0 76
-0.048009 -0.110761 0.966267 76 153 0
-0.167753 0.398773 -0.093199 0 255 0
-0.113252 0.415307 -0.025792 0 255 0
0.118928 -0.022554 0.387500 0 127 127
0.017527 0.506893 -0.371460 0 255 0
-0.043951 -0.653448 0.056184 76 0 153
0.035840 -0.304251 0.013648 153 0 76
-0.136700 -0.541412 -0.308083 153 0 76
0.109661 0.030874 0.838311 0 127 127
-0.129556 -0.130854 -0.039924 153 0 76
0.046932 0.054611 0.710026 0 127 127
0.118773 0.035548 -0.020879 153 0 76
-0.068399 0.066500 0.931125 0 127 127
-0.175916 0.355519 -0.110524 153 0 76
0.109058 0.243243 -0.341075 153 0 76
-0.169838 -0.517180 -0.097490 153 0 76
0.027416 -0.068880 0.014385 153 0 76
-0.140863 -0.643220 -0.365238 76 0 153
-0.100354 0.015811 0.762799 0 127 127
0.032343 -0.147789 0.062466 0 127 127
0.198789 -0.516773 -0.166799 153 0 76
0.163509 -0.153133 -0.289141 153 0 76
0.135528 0.128183 -0.321030 153 0 76
0.199455 0.096848 -0.174412 153 0 76
-0.143111 -0.423038 -0.053695 153 0 76
0.018630 0.052614 0.998795 0 127 127
-0.067213 0.028087 0.213612 0 127 127
-0.052682 0.034775 0.338505 0 127 127
-0.160336 -0.127027 -0.276857 153 0 76
0.089650 0.542797 -0.164009 0 255 0
-0.032541 -0.019641 0.012047 153 0 76
0.168133 -0.038484 -0.072614 153 0 76
-0.093282 0.038482 0.874701 0 127 127
-0.067568 -0.107113 0.821966 0 127 127
0.034279 -0.117390 0.631069 0 127 127
0.004494 -0.073544 1.004475 0 127 127
-0.176480 0.029160 -0.243082 153 0 76
-0.025487 -0.137542 0.253907 0 127 127
0.192921 -0.098911 -0.129486 153 0 76
0.194751 0.165679 -0.136317 153 0 76
-0.093245 0.375644 -0.073784 153 0 76
0.189873 -0.283890 -0.118111 153 0 76
-0.038298 0.034322 0.330038 0 127 127
0.018645 -0.110824 0.753840 0 127 127
-0.187382 -0.091848 -0.171001 153 0 76
0.189003 0.396123 -0.116671 0 255 0
0.004732 0.556747 -0.371991 0 255 0
0.120064 -0.018724 0.607916 0 127 127
0.079821 -0.679633 -0.349182 76 0 153
0.055155 0.040409 0.444534 0 127 127
0.010504 -0.639132 -0.329366 153 0 76
0.049226 0.497944 0.239144 0 255 0
0.050936 0.329382 -0.365424 153 0 76
0.121964 -0.025799 -0.332038 153 0 76
0.098890 0.007122 -0.024567 0 127 127
-0.187535 0.314067 -0.172747 153 0 76
-0.084338 -0.679633 -0.291886 76 0 153
0.126915 0.182394 -0.328571 153 0 76
0.037584 0.375644 -0.132026 153 0 76
-0.027000 -0.089233 -0.368543 153 0 76
-0.037501 -0.134566 0.309495 0 127 127
-0.176589 0.553787 -0.114559 0 255 0
-0.013634 0.075838 -0.369713 153 0 76
-0.181582 -0.370223 -0.224039 153 0 76
-0.033163 0.572133 0.535595 0 255 0
0.114988 -0.092649 0.267852 0 127 127
-0.185831 0.182907 -0.201889 153 0 76
0.161377 0.395398 -0.155603 0 255 0
0.150558 0.147529 -0.306000 153 0 76
0.017183 -0.621146 0.015281 153 0 76
-0.021834 0.572430 0.028807 0 255 0
0.198245 0.148115 -0.160578 153 0 76
0.037806 0.011952 -0.087603 0 127 127
-0.127161 0.634827 -0.311491 0 255 0
0.168293 0.340964 -0.072843 153 0 76
0.095456 -0.067147 0.992704 0 127 127
0.102412 0.009195 0.141831 0 127 127
0.036965 -0.193613 -0.368702 153 0 76
0.041001 0.079157 -0.368087 153 0 76
0.096401 0.042402 0.543102 0 127 127
0.087674 0.052273 0.989944 0 127 127
0.090871 0.029448 0.241954 0 127 127
-0.130290 -0.097988 -0.040659 153 0 76
0.091516 0.622569 -0.350767 0 255 0
0.049586 0.623652 -0.366053 0 255 0
0.133099 -0.015740 -0.323459 153 0 76
0.135687 -0.206689 -0.320871 153 0 76
0.120359 0.311092 -0.333162 153 0 76
0.009948 0.547402 -0.251584 0 255 0
0.199104 -0.499862 -0.170399 153 0 76
-0.017163 0.572430 0.503348 0 255 0
-0.087030 -0.679633 -0.115613 76 0 153
0.156027 0.029977 -0.299826 153 0 76
-0.185291 -0.479395 -0.208050 153 0 76
0.179102 0.552979 -0.092405 0 255 0
-0.213521 -0.653915 -0.272318 76 0 153
0.064803 0.634827 -0.125063 0 255 0
-0.021008 0.052277 0.665619 0 127 127
-0.063001 -0.160688 0.003371 153 0 76
-0.082382 -0.116023 0.593103 0 127 127
0.197019 -0.143311 -0.146562 153 0 76
-0.033138 0.553209 -0.133247 0 255 0
0.198656 0.604687 -0.166655 0 255 0
0.112032 -0.023487 -0.071203 0 127 127
-0.094694 -0.639133 -0.214757 153 0 76
0.117498 -0.072414 0.456228 0 127 127
0.151570 0.488772 -0.051004 0 255 0
0.007681 0.069309 0.984989 0 127 127
0.116606 0.012022 0.857594 0 127 127
-0.107102 -0.034875 0.540765 0 127 127
0.199343 0.555873 -0.173632 0 255 0
-0.231990 -0.679633 -0.163166 76 0 153
-0.038875 0.032156 0.289600 0 127 127
0.176643 -0.679633 -0.266993 76 0 153
0.070100 -0.679633 -0.069648 76 0 153
-0.176440 0.046149 -0.243231 153 0 76
0.035356 0.572430 0.175637 0 255 0
0.026889 0.127742 -0.369583 153 0 76
-0.011885 -0.113623 0.701029 0 127 127
-0.180986 -0.449215 -0.128890 153 0 76
0.172215 -0.639132 -0.233448 153 0 76
-0.156552 0.449873 -0.284216 0 255 0
-0.097607 -0.092207 0.440914 0 127 127
0.086765 -0.106756 0.827269 0 127 127
0.125387 0.395758 -0.080628 0 255 0
-0.006741 0.511714 -0.304300 0 255 0
0.040086 -0.104070 0.879977 76 153 0
-0.178718 0.241948 -0.120422 153 0 76
-0.099474 -0.639133 -0.124108 76 0 153
-0.180585 -0.412502 -0.127393 153 0 76
0.113887 0.000673 0.460922 0 127 127
0.079623 0.375644 -0.213271 153 0 76
0.156073 -0.358741 -0.299761 153 0 76
0.078400 -0.108614 0.794031 0 127 127
-0.150429 -0.094537 -0.291006 153 0 76
0.041361 -0.061020 -0.367990 153 0 76
-0.025564 -0.114135 0.691198 0 127 127
0.036021 0.572430 -0.035921 0 255 0
0.148091 -0.011322 -0.046685 153 0 76
0.084824 0.218826 -0.001315 153 0 76
-0.122462 0.025310 -0.322322 153 0 76
-0.040248 0.297327 0.009982 153 0 76
0.076680 0.031144 0.271088 0 127 127
0.188539 0.594087 -0.241011 0 255 0
-0.128018 -0.643453 -0.052592 153 0 76
0.192700 0.242402 -0.128660 153 0 76
-0.172927 -0.487200 -0.104115 153 0 76
0.086893 0.145195 -0.352872 153 0 76
-0.113822 0.252955 -0.025657 153 0 76
0.086794 -0.679633 -0.228929 76 0 153
0.107533 -0.225148 -0.013008 153 0 76
0.030384 0.412750 -0.358847 0 255 0
-0.067813 0.034449 0.332276 0 127 127
0.118639 -0.051949 0.751915 0 127 127
-0.011909 0.375644 -0.325014 153 0 76
-0.061670 -0.639132 -0.303557 153 0 76
0.192335 0.099182 -0.227852 153 0 76
-0.181687 0.478625 -0.131365 0 255 0
-0.019349 0.029591 0.241714 0 127 127
0.050696 -0.123994 0.507547 0 127 127
0.049012 -0.153300 -0.040489 0 127 127
-0.047188 0.478071 -0.324132 0 255 0
0.015097 -0.679633 -0.371496 76 0 153
-0.168740 0.283200 -0.260018 153 0 76
0.197252 -0.382104 -0.205926 153 0 76
-0.162321 0.553266 -0.083036 0 255 0
-0.042656 0.514921 0.146110 0 255 0
0.033388 -0.027214 -0.369015 153 0 76
-0.070945 -0.639132 -0.070080 153 0 76
0.174910 -0.166301 -0.083115 153 0 76
0.166718 0.270187 -0.284558 153 0 76
-0.158523 0.488796 -0.075931 0 255 0
-0.021200 -0.149432 0.031773 0 127 127
0.196147 -0.416571 -0.213628 153 0 76
-0.184627 0.173374 -0.142476 153 0 76
0.110821 -0.092766 0.464162 0 127 127
-0.182891 -0.116740 -0.219154 153 0 76
0.177781 0.226409 -0.089273 153 0 76
0.183929 0.433062 -0.161785 0 255 0
0.070129 -0.147728 0.063727 0 127 127
0.120188 -0.639132 -0.345911 76 0 153
-0.012261 -0.094075 0.890437 76 153 0
0.188161 0.569635 -0.113894 0 255 0
0.111531 -0.671084 -0.391158 76 0 153
0.222602 -0.677904 -0.277359 76 0 153
-0.103942 -0.035135 0.077330 0 127 127
-0.186782 0.260186 -0.164144 153 0 76
0.143313 0.619288 -0.040942 0 255 0
0.207845 -0.679633 -0.248080 76 0 153
0.002257 0.062111 0.850351 0 127 127
0.178782 0.412941 -0.110202 0 255 0
0.011409 0.060052 0.811866 0 127 127
-0.084088 -0.093480 0.952291 0 127 127
-0.178037 -0.546980 -0.117884 153 0 76
0.172385 0.627086 -0.275415 0 255 0
-0.090094 0.026569 0.526188 0 127 127
-0.172123 -0.206124 -0.252762 153 0 76
0.049937 -0.121212 0.559544 0 127 127
0.176323 -0.586954 -0.269006 153 0 76
-0.039940 0.508319 0.523857 0 255 0
-0.026193 0.320631 -0.368614 153 0 76
0.126034 -0.643453 -0.179815 76 0 153
0.059454 0.540855 0.332493 0 255 0
0.018676 0.041964 0.473393 0 127 127
0.109088 0.025762 0.717744 0 127 127
-0.066645 -0.679633 -0.318197 76 0 153
0.079277 -0.572277 0.001272 153 0 76
0.141368 -0.679633 -0.092081 76 0 153
-0.080792 0.267178 -0.004925 153 0 76
0.071154 0.545121 -0.360585 0 255 0
-0.142150 0.415940 -0.283375 0 255 0
-0.125600 0.202299 -0.319184 153 0 76
0.118312 -0.039678 0.022003 0 127 127
0.111009 -0.104471 0.237633 0 127 127
-0.086473 0.004035 -0.025478 0 127 127
-0.073656 0.038297 0.405315 0 127 127
0.004856 0.494978 -0.035471 0 255 0
0.052177 0.633142 0.007905 0 255 0
-0.104943 0.007024 0.938447 0 127 127
-0.174976 -0.663212 -0.332611 76 0 153
0.041682 0.456132 -0.340725 0 255 0
0.049227 -0.111068 0.749112 0 127 127
0.067979 0.017257 0.011477 153 0 76
-0.020621 -0.049838 1.002492 0 127 127
-0.144809 -0.022519 -0.056120 153 0 76
-0.017709 -0.639132 -0.410459 76 0 153
0.135684 -0.038636 -0.034278 153 0 76
0.172628 0.621177 -0.080293 0 255 0
-0.044285 0.634827 -0.349892 0 255 0
0.075503 -0.589937 0.003032 153 0 76
0.112788 -0.103732 0.173110 0 127 127
0.055944 0.555149 0.458902 0 255 0
0.122627 0.634827 -0.097748 0 255 0
-0.035944 0.054153 0.700335 0 127 127
0.051144 0.501670 0.369551 0 255 0
-0.067294 0.634827 -0.215652 0 255 0
0.082065 0.061678 -0.355124 153 0 76
-0.217923 -0.679633 -0.216903 76 0 153
0.156488 0.046086 -0.055983 153 0 76
-0.109772 0.146205 -0.332331 153 0 76
-0.165149 0.394718 -0.180069 0 255 0
-0.004400 -0.679633 -0.280913 76 0 153
-0.049228 0.062814 0.007575 153 0 76
0.130537 0.588468 -0.326029 0 255 0
-0.117667 -0.250660 -0.028350 153 0 76
0.066321 -0.059147 -0.361302 153 0 76
-0.046090 0.021025 -0.363568 153 0 76
-0.154941 0.048033 -0.070591 153 0 76
0.072614 0.032986 0.305584 0 127 127
-0.064625 0.464424 -0.324543 0 255 0
0.099344 0.447704 -0.317631 0 255 0
0.033733 -0.145451 0.106147 0 127 127
0.007601 0.538732 -0.372103 0 255 0
-0.152299 0.375644 -0.164036 153 0 76
0.177970 -0.282988 -0.089678 153 0 76
0.182945 0.309911 -0.254805 153 0 76
0.162736 -0.146386 -0.064907 153 0 76
0.059872 0.535724 0.106966 0 255 0
-0.022222 0.037594 0.391120 0 127 127
-0.123647 0.375644 -0.075762 153 0 76
0.107698 -0.004366 0.094626 0 127 127
-0.147447 0.183869 -0.295264 153 0 76
-0.106429 -0.033077 0.854646 0 127 127
-0.059753 0.362373 -0.359907 153 0 76
-0.036784 -0.588059 0.010909 153 0 76
0.124501 0.499925 -0.252237 0 255 0
0.159390 0.016603 -0.060129 153 0 76
0.150112 0.479058 -0.240133 0 255 0
-0.052685 -0.679633 -0.252343 76 0 153
-0.024381 0.076249 0.013621 153 0 76
0.015655 -0.395773 0.015414 153 0 76
0.120147 -0.057460 0.459566 0 127 127
-0.165660 0.375644 -0.189895 153 0 76
-0.112838 -0.067853 -0.330184 153 0 76
0.196146 -0.339327 -0.141522 153 0 76
0.069184 -0.465256 -0.360535 153 0 76
-0.070018 0.547359 -0.356934 0 255 0
-0.089918 0.014666 0.986295 0 127 127
0.044251 0.043758 0.507190 0 127 127
-0.066774 -0.141920 0.172122 0 127 127
-0.013787 -0.679633 0.053627 76 0 153
-0.095252 0.027168 0.750217 0 127 127
-0.076048 0.626890 -0.352633 0 255 0
0.163401 0.544673 -0.290379 0 255 0
0.019707 -0.270809 -0.370212 153 0 76
0.183211 0.488950 -0.100093 0 255 0
-0.185052 -0.050586 -0.210785 153 0 76
0.119934 0.467651 -0.293787 0 255 0
-0.107709 0.011842 -0.021377 153 0 76
-0.047106 0.213563 -0.363296 153 0 76
-0.041615 -0.142875 0.154264 0 127 127
0.044866 -0.123869 0.011899 153 0 76
0.003862 0.494978 0.117928 0 255 0
0.188528 -0.659871 -0.024706 76 0 153
0.016169 -0.097624 1.002166 0 127 127
0.054695 0.558094 0.043183 0 255 0
-0.051205 -0.291951 -0.362197 153 0 76
-0.069051 0.363801 0.000550 153 0 76
-0.034493 -0.139690 0.977483 76 153 0
-0.198938 -0.639133 -0.154938 76 0 153
0.069271 -0.646447 -0.407228 76 0 153
-0.056756 0.068482 0.968540 0 127 127
-0.043959 0.035879 0.359108 0 127 127
-0.096517 -0.000691 0.286239 0 127 127
-0.102533 -0.038991 -0.100493 0 127 127
0.199502 -0.569513 -0.180215 153 0 76
0.120578 -0.065352 0.213623 0 127 127
-0.136190 -0.265018 -0.046559 153 0 76
0.197831 -0.286520 -0.155844 153 0 76
0.134858 0.375644 -0.118595 153 0 76
-0.182323 -0.098572 -0.221275 153 0 76
0.050497 0.566995 0.026500 0 255 0
-0.161942 -0.479454 -0.274563 153 0 76
0.149027 0.334259 -0.047621 153 0 76
0.195434 0.307284 -0.216286 153 0 76
-0.115885 -0.554992 -0.328050 153 0 76
-0.032770 0.051557 0.997067 0 127 127
-0.097194 0.002279 0.371398 0 127 127
-0.103287 -0.059174 0.720579 0 127 127
0.142977 0.090238 -0.041570 153 0 76
-0.024815 -0.679633 -0.271398 76 0 153
-0.154147 -0.639133 -0.225043 76 0 153
0.162884 0.619913 -0.290480 0 255 0
0.136070 -0.499562 -0.034663 153 0 76
0.006668 -0.650860 0.061662 76 0 153
0.120415 -0.081744 -0.054594 0 127 127
-0.089340 -0.252922 -0.346241 153 0 76
-0.070177 0.487319 0.000507 0 255 0
-0.186041 0.551389 -0.199090 0 255 0
0.120655 -0.018575 0.747184 0 127 127
0.143896 0.172493 -0.312662 153 0 76
-0.161508 0.597571 -0.273910 0 255 0
0.186694 -0.236462 -0.246765 153 0 76
0.116519 -0.006155 0.512209 0 127 127
0.185962 0.395471 -0.225724 0 255 0
0.070059 -0.136177 0.279651 0 127 127
-0.020148 0.099053 -0.369143 153 0 76
-0.044562 0.544811 0.562701 0 255 0
0.028450 0.022456 0.108518 0 127 127
0.053623 0.051631 0.996336 0 127 127
0.227856 -0.639132 -0.220718 76 0 153
-0.068313 -0.450161 -0.356046 153 0 76
0.045716 -0.401664 0.011671 153 0 76
0.000773 0.028302 0.217660 0 127 127
0.056070 0.554852 0.124893 0 255 0
0.197452 0.187754 -0.151521 153 0 76
0.199628 -0.623550 -0.176385 153 0 76
-0.066341 -0.571792 0.001814 153 0 76
0.120350 -0.028284 0.495221 0 127 127
-0.049189 -0.103719 0.883671 76 153 0
0.074085 -0.099719 0.923711 0 127 127
0.070026 -0.138734 0.231881 0 127 127
-0.144959 0.568995 -0.299525 0 255 0
-0.112697 0.385462 -0.032661 0 255 0
0.183770 0.332342 -0.102116 153 0 76
0.111295 -0.129731 -0.015643 153 0 76
-0.055277 -0.639132 -0.090865 76 0 153
-0.059136 -0.479415 0.004920 153 0 76
-0.090971 -0.343722 -0.009672 153 0 76
0.183647 0.523087 -0.100909 0 255 0
-0.062613 -0.551730 -0.358704 153 0 76
0.082094 0.547276 -0.180350 0 255 0
0.040181 0.572430 0.470920 0 255 0
0.058180 -0.672492 -0.410592 76 0 153
-0.028125 -0.123309 -0.368382 153 0 76
0.066592 0.549198 -0.136192 0 255 0
-0.162006 -0.411841 -0.080694 153 0 76
-0.106588 -0.039162 0.704838 0 127 127
-0.057802 0.634827 -0.070817 0 255 0
-0.104181 0.298410 -0.336246 153 0 76
-0.021325 0.627536 -0.368808 0 255 0
-0.187684 0.189993 -0.180708 153 0 76
-0.005105 0.375644 -0.213421 153 0 76
0.022098 -0.131222 0.868095 76 153 0
0.146385 -0.643453 -0.250861 153 0 76
-0.026798 0.469212 -0.335242 0 255 0
0.067051 0.399196 0.005462 0 255 0
0.170594 0.528253 -0.076489 0 255 0
-0.040531 -0.106364 0.836386 0 127 127
0.189183 0.106776 -0.115536 153 0 76
-0.098634 0.518757 -0.118691 0 255 0
-0.029703 0.495003 0.494152 0 255 0
-0.076373 -0.327335 -0.352288 153 0 76
0.185579 -0.099481 -0.105995 153 0 76
0.199450 0.360203 -0.174356 153 0 76
0.166773 0.308965 -0.284479 153 0 76
0.182917 0.260584 -0.254864 153 0 76
0.071051 0.028013 0.212716 0 127 127
0.075652 0.634827 -0.320890 0 255 0
0.039954 -0.303481 -0.368367 153 0 76
-0.005001 -0.132101 0.355563 0 127 127
0.038842 0.525344 -0.068959 0 255 0
0.070249 -0.129326 0.946955 76 153 0
-0.132179 0.375644 -0.200648 153 0 76
0.161394 -0.419806 -0.292162 153 0 76
-0.026914 -0.011726 1.000441 0 127 127
-0.003134 0.556609 -0.129758 0 255 0
0.191375 0.431770 -0.235097 0 255 0
0.196910 0.220214 -0.209834 153 0 76
0.197524 -0.491272 -0.152330 153 0 76
-0.012581 0.634827 -0.123873 0 255 0
0.183706 -0.480456 -0.101979 153 0 76
-0.216233 -0.679633 -0.186924 76 0 153
0.120688 -0.061125 0.267180 0 127 127
-0.038059 0.504090 -0.011560 0 255 0
0.085154 -0.679633 -0.120209 76 0 153
0.031942 -0.136889 0.266104 0 127 127
-0.039623 0.507572 0.311031 0 255 0
0.049219 0.569477 0.103298 0 255 0
0.185511 0.510358 -0.252104 0 255 0
0.192691 0.124100 -0.226525 153 0 76
-0.026603 -0.092050 0.936902 76 153 0
-0.154281 0.452979 -0.232637 0 255 0
-0.012470 -0.679633 -0.168587 76 0 153
0.163139 -0.529483 -0.289669 153 0 76
-0.017643 0.572430 0.323767 0 255 0
0.072169 0.634827 -0.341468 0 255 0
0.066522 0.066684 0.935139 0 127 127
-0.078171 -0.092721 0.994771 0 127 127
0.199078 -0.264417 -0.170101 153 0 76
-0.025329 0.483110 0.013194 0 255 0
0.045748 0.375644 -0.306734 153 0 76
0.060311 -0.035178 -0.362912 153 0 76
-0.177990 -0.679633 -0.051351 76 0 153
0.118437 -0.044177 0.912007 0 127 127
0.045276 -0.639132 -0.391813 76 0 153
-0.009805 -0.122161 0.541264 0 127 127
0.084889 -0.232258 -0.001345 153 0 76
0.166895 0.178860 -0.284306 153 0 76
-0.053266 0.196952 0.006493 153 0 76
-0.179373 0.540101 -0.123737 0 255 0
0.222345 -0.656711 -0.277839 76 0 153
0.030510 -0.121074 -0.369267 153 0 76
-0.052749 0.551734 -0.153799 0 255 0
0.234718 -0.679633 -0.239458 76 0 153
0.110560 0.116808 -0.015128 153 0 76
-0.066789 0.438805 -0.336707 0 255 0
0.019323 0.024004 0.137402 0 127 127
0.098615 0.045964 0.689869 0 127 127
0.117386 -0.679633 0.023861 76 0 153
-0.184100 -0.147230 -0.214643 153 0 76
-0.106006 -0.679633 -0.185608 76 0 153
0.111280 -0.113213 0.062716 0 127 127
0.202606 -0.679633 -0.133758 76 0 153
0.073195 0.375644 -0.033568 153 0 76
-0.090109 0.030530 0.985493 0 127 127
-0.099525 -0.095484 0.295437 0 127 127
0.156158 0.106832 -0.299639 153 0 76
0.068402 0.538320 -0.107870 0 255 0
0.029372 0.572430 0.206888 0 255 0
-0.067178 -0.153137 -0.037439 0 127 127
-0.160782 0.098844 -0.078932 153 0 76
0.016926 0.064651 0.897882 0 127 127
0.082587 0.447379 -0.313249 0 255 0
0.092769 0.414206 -0.014314 0 255 0
-0.044048 -0.234225 0.008963 153 0 76
0.120258 -0.037709 0.802599 0 127 127
0.034852 0.389039 -0.360985 0 255 0
-0.018021 -0.639132 -0.198321 153 0 76
0.034995 -0.082479 1.003890 0 127 127
-0.103937 -0.091129 0.075958 0 127 127
0.073818 -0.129336 0.922291 76 153 0
0.011914 0.046973 0.567080 0 127 127
0.037132 0.064122 -0.368687 153 0 76
-0.018640 0.172961 -0.369275 153 0 76
-0.041764 -0.679633 -0.156438 76 0 153
0.141008 -0.147813 -0.039602 153 0 76
0.050446 -0.639132 -0.169405 153 0 76
-0.105867 -0.042221 0.812457 0 127 127
-0.130458 -0.509626 -0.040827 153 0 76
-0.032016 0.572341 0.497890 0 255 0
-0.170419 0.024808 -0.256416 153 0 76
-0.166099 -0.643453 -0.253951 153 0 76
0.010340 -0.112387 0.724534 0 127 127
0.084093 0.014565 0.992127 0 127 127
-0.096465 -0.092781 0.480486 0 127 127
0.102319 -0.569456 -0.345679 153 0 76
0.124066 0.185599 -0.024585 153 0 76
-0.047726 -0.639132 -0.312413 76 0 153
0.064924 0.375644 -0.055387 153 0 76
0.179029 -0.449423 -0.263205 153 0 76
-0.099257 -0.103954 0.149270 0 127 127
-0.078889 0.039530 0.432970 0 127 127
0.005404 0.634827 -0.049509 0 255 0
0.047688 -0.155416 -0.080026 0 127 127
0.005596 0.488222 -0.326179 0 255 0
-0.072973 0.052752 0.674920 0 127 127
-0.166844 0.310127 -0.091069 153 0 76
-0.202770 -0.675424 -0.062721 76 0 153
0.166941 -0.329700 -0.284239 153 0 76
-0.085928 -0.105369 0.663293 0 127 127
0.120373 0.417021 -0.021974 0 255 0
0.190490 0.237787 -0.234739 153 0 76
0.142512 -0.668594 0.018397 76 0 153
0.064577 0.280097 -0.361769 153 0 76
-0.154495 -0.285757 -0.069954 153 0 76
0.056921 0.057018 0.754827 0 127 127
0.199373 0.279104 -0.173469 153 0 76
0.198381 0.564034 -0.191321 0 255 0
0.118127 -0.043914 0.940252 0 127 127
0.021147 0.045038 -0.370086 153 0 76
0.093518 -0.219176 -0.349783 153 0 76
-0.045668 0.534150 0.029224 0 255 0
0.027999 -0.404353 0.014334 153 0 76
0.051089 0.516613 -0.291122 0 255 0
-0.167183 0.451303 -0.092132 0 255 0
0.131499 -0.075734 -0.325059 153 0 76
0.059862 0.535850 0.463143 0 255 0
-0.045699 0.578558 -0.364087 0 255 0
-0.181289 0.291717 -0.130019 153 0 76
0.117581 -0.015466 0.418437 0 127 127
-0.020994 0.065967 0.922251 0 127 127
-0.158315 0.541296 -0.280276 0 255 0
-0.101337 -0.557850 -0.338237 153 0 76
-0.135668 -0.230823 -0.309116 153 0 76
-0.004652 -0.111128 0.747908 0 127 127
-0.181163 -0.278020 -0.129551 153 0 76
-0.061357 0.018796 0.040174 0 127 127
0.061635 0.544096 -0.236503 0 255 0
0.149329 0.634827 -0.222381 0 255 0
0.069456 -0.622047 -0.360462 153 0 76
-0.187744 -0.484628 -0.175143 153 0 76
0.196904 -0.157651 -0.209907 153 0 76
-0.172459 -0.551001 -0.103112 153 0 76
-0.098949 0.634827 -0.334823 0 255 0
0.140130 0.375644 -0.246495 153 0 76
0.011076 0.572430 0.459457 0 255 0
0.118748 -0.090362 0.027709 0 127 127
0.078169 -0.134976 0.001789 153 0 76
-0.153671 -0.425713 -0.286375 153 0 76
-0.121181 0.507473 -0.138159 0 255 0
-0.052175 -0.259587 -0.361937 153 0 76
0.169075 -0.137808 -0.281191 153 0 76
0.012397 0.207155 0.015699 153 0 76
-0.156214 -0.306899 -0.072409 153 0 76
0.147603 0.074777 -0.308955 153 0 76
-0.095533 -0.115609 0.095833 0 127 127
0.150644 -0.627869 -0.305914 153 0 76
0.043359 -0.129412 0.406239 0 127 127
-0.035963 0.011677 -0.092736 0 127 127
-0.048470 0.337473 -0.362930 153 0 76
-0.082039 0.540231 -0.174337 0 255 0
0.185419 -0.358189 -0.249500 153 0 76
0.010366 0.349042 -0.371029 153 0 76
-0.103565 -0.036088 0.031176 0 127 127
-0.099331 0.028700 0.958148 0 127 127
-0.007181 -0.094430 0.990876 76 153 0
-0.124020 -0.409099 -0.034389 153 0 76
0.166012 -0.379566 -0.069585 153 0 76
-0.174341 -0.467897 -0.107147 153 0 76
-0.022721 -0.643453 -0.263897 153 0 76
0.148606 0.425459 -0.287340 0 255 0
0.146440 -0.515737 -0.310118 153 0 76
0.031447 -0.106979 0.825708 0 127 127
-0.186782 0.473601 -0.165636 0 255 0
0.056641 -0.639132 -0.155263 153 0 76
-0.118406 -0.643453 -0.259273 153 0 76
0.097098 -0.639132 -0.190043 76 0 153
0.203545 -0.679633 -0.060230 76 0 153
0.082546 -0.100028 0.954372 0 127 127
0.002798 0.266608 0.015999 153 0 76
0.158866 0.351699 -0.059380 153 0 76
0.108245 -0.000633 0.188299 0 127 127
0.004480 -0.679633 -0.258425 76 0 153
0.053191 -0.134443 0.312173 0 127 127
0.049961 -0.545438 -0.365686 153 0 76
-0.035314 0.510738 -0.299278 0 255 0
-0.001449 -0.117582 0.627079 0 127 127
-0.228592 -0.639748 -0.159608 76 0 153
0.100513 0.033019 0.517284 0 127 127
-0.146202 0.634827 -0.174725 0 255 0
-0.043264 0.634827 -0.233366 0 255 0
0.126650 0.634827 -0.258503 0 255 0
0.071775 0.375644 -0.113604 153 0 76
0.043332 0.022743 0.113877 0 127 127
-0.159194 -0.631983 -0.278486 153 0 76
0.086030 0.537598 -0.226167 0 255 0
-0.038340 0.504636 0.025742 0 255 0
0.101376 -0.119287 0.350424 0 127 127
0.065012 -0.083800 -0.361653 153 0 76
0.041776 0.494978 0.268634 0 255 0
0.106311 -0.131257 -0.055074 0 127 127
0.107002 0.505669 -0.085841 0 255 0
-0.033749 0.056690 0.747994 0 127 127
0.173937 0.442448 -0.082743 0 255 0
0.041970 -0.679633 0.051386 76 0 153
0.027767 -0.679633 0.012221 76 0 153
-0.108694 0.054831 -0.333086 153 0 76
0.076265 -0.196243 0.002677 153 0 76
-0.045613 0.534824 0.324218 0 255 0
0.120133 -0.014281 -0.021832 153 0 76
-0.170285 0.375644 -0.215907 153 0 76
0.135647 0.375644 -0.294456 153 0 76
-0.058765 -0.258097 0.005020 153 0 76
0.047524 0.216637 -0.366339 153 0 76
-0.169048 0.259952 -0.259357 153 0 76
0.149805 0.159885 -0.048399 153 0 76
0.120051 -0.035994 0.881933 0 127 127
0.078666 0.429993 -0.340552 0 255 0
-0.157845 -0.048305 -0.280414 153 0 76
-0.016055 -0.473252 0.014349 153 0 76
-0.174631 0.429187 -0.108104 0 255 0
0.028883 0.058742 0.787363 0 127 127
0.115237 -0.082878 0.431281 0 127 127
-0.122879 -0.384682 -0.321904 153 0 76
0.146342 0.488583 -0.123692 0 255 0
0.000142 -0.641556 -0.415076 76 0 153
-0.197493 -0.643771 -0.052848 76 0 153
0.196789 -0.516020 -0.143937 153 0 76
0.199638 0.127399 -0.176503 153 0 76
-0.080271 0.245880 -0.350470 153 0 76
0.088158 0.304343 -0.002869 153 0 76
0.137302 -0.639132 -0.054988 153 0 76
-0.031538 0.517269 -0.060584 0 255 0
0.108702 0.439053 -0.032408 0 255 0
-0.023735 0.537595 -0.369431 0 255 0
-0.164235 0.116038 -0.269678 153 0 76
-0.177980 -0.334523 -0.117672 153 0 76
-0.041677 -0.109807 0.772069 0 127 127
-0.077129 -0.341626 -0.003217 153 0 76
0.095825 -0.153842 -0.092723 0 127 127
-0.100556 0.375644 -0.208300 153 0 76
-0.028967 -0.098189 0.989823 0 127 127
0.106726 0.466523 -0.345488 0 255 0
-0.074192 -0.104361 0.871135 0 127 127
-0.007471 0.059447 0.800368 0 127 127
0.055502 0.086094 0.009049 153 0 76
0.009313 0.058273 0.778592 0 127 127
-0.090040 0.011818 0.249039 0 127 127
-0.100233 -0.008785 0.298856 0 127 127
0.194927 -0.315941 -0.136974 153 0 76
0.051990 0.634827 -0.241086 0 255 0
0.032696 0.634827 -0.347808 0 255 0
0.128534 -0.632019 -0.027713 153 0 76
0.119995 -0.037845 0.235623 0 127 127
0.110521 -0.020499 -0.340051 153 0 76
-0.006481 0.494978 0.038933 0 255 0
-0.182888 0.332504 -0.219168 153 0 76
0.103086 -0.138872 -0.076840 0 127 127
0.047729 -0.679633 -0.292002 76 0 153
-0.106342 -0.046998 0.614879 0 127 127
-0.049071 0.054411 0.994964 0 127 127
0.119562 -0.643453 -0.290262 76 0 153
0.118836 -0.007209 0.666647 0 127 127
0.072797 -0.679633 -0.257168 76 0 153
0.174531 0.602580 -0.083853 0 255 0
0.120845 -0.058329 0.283421 0 127 127
-0.091891 0.375644 -0.327393 153 0 76
-0.098061 -0.327324 -0.014621 153 0 76
0.119560 -0.011546 0.640259 0 127 127
-0.203083 -0.639133 -0.098289 76 0 153
0.059859 0.531521 0.233609 0 255 0
0.074345 0.634827 -0.113590 0 255 0
0.119618 -0.213211 -0.333681 153 0 76
0.105822 -0.117412 0.224257 0 127 127
-0.149208 -0.569940 -0.062403 153 0 76
0.150487 -0.257303 -0.049080 153 0 76
0.124860 -0.679633 -0.146324 76 0 153
-0.131595 0.369442 -0.041964 153 0 76
0.016010 0.128716 0.015383 153 0 76
-0.186330 -0.128680 -0.196176 153 0 76
0.169245 0.479555 -0.073965 0 255 0
-0.106894 0.466549 -0.294226 0 255 0
-0.115025 -0.639133 -0.181032 76 0 153
-0.139862 0.389264 -0.291691 0 255 0
0.120104 -0.064958 0.329558 0 127 127
0.053354 0.506156 0.024857 0 255 0
-0.049846 0.542886 -0.114659 0 255 0
0.110853 -0.027202 -0.015333 0 127 127
0.072440 -0.128446 0.424027 0 127 127
-0.091886 -0.081611 0.890553 0 127 127
-0.120904 0.375644 -0.148878 153 0 76
0.106260 -0.322831 -0.012117 153 0 76
-0.101705 -0.057883 0.863656 0 127 127
-0.182542 -0.514145 -0.220454 153 0 76
0.034013 -0.455359 0.013808 153 0 76
-0.010424 0.013869 -0.051800 0 127 127
-0.001167 0.494978 -0.005862 0 255 0
0.048903 -0.679633 0.013046 76 0 153
0.061842 -0.639132 -0.347490 153 0 76
0.193346 0.069773 -0.131074 153 0 76
-0.099753 -0.113587 -0.052159 0 127 127
-0.031383 -0.092685 0.922337 76 153 0
-0.157799 0.419480 -0.098295 0 255 0
-0.001461 0.339429 -0.370778 153 0 76
0.014662 -0.119695 0.015501 153 0 76
-0.003863 -0.140264 0.203059 0 127 127
0.135614 -0.639132 -0.004941 76 0 153
-0.089154 0.022926 0.424121 0 127 127
-0.032746 -0.679633 -0.218953 76 0 153
0.057947 -0.285792 -0.363546 153 0 76
-0.155434 0.464799 -0.148382 0 255 0
0.048088 -0.105043 0.861697 0 127 127
-0.103462 0.011479 0.910240 0 127 127
-0.068093 0.154372 -0.356149 153 0 76
0.181303 -0.679633 -0.016321 76 0 153
-0.029506 -0.117609 0.983105 76 153 0
0.121013 -0.649388 -0.386089 76 0 153
0.099684 0.003431 -0.064584 0 127 127
-0.074012 -0.585681 -0.353388 153 0 76
-0.037892 0.402999 0.010736 0 255 0
0.045964 0.026813 0.190038 0 127 127
0.039822 0.494978 -0.000745 0 255 0
0.028027 0.598459 -0.369602 0 255 0
0.071786 -0.130353 0.388424 0 127 127
-0.101100 -0.181635 -0.016749 153 0 76
0.080161 0.014581 -0.038408 0 127 127
-0.039152 0.506463 0.257030 0 255 0
-0.018573 0.572430 0.008981 0 255 0
-0.111246 0.459167 -0.056998 0 255 0
-0.113379 -0.197279 -0.025347 153 0 76
-0.017082 0.494978 0.465334 0 255 0
0.053657 0.506869 0.471369 0 255 0
0.032942 -0.643453 -0.343938 76 0 153
-0.107303 -0.050048 0.338111 0 127 127
-0.078852 -0.208973 -0.351132 153 0 76
0.154371 0.122480 -0.302187 153 0 76
-0.139105 -0.195512 -0.305678 153 0 76
-0.143957 -0.598447 -0.054904 153 0 76
0.007269 -0.643453 -0.056624 76 0 153
-0.082619 0.213260 -0.005777 153 0 76
0.191973 0.198974 -0.229204 153 0 76
0.104016 -0.514867 -0.344606 153 0 76
-0.043753 0.548071 0.492132 0 255 0
-0.101951 -0.050890 -0.017345 153 0 76
-0.122984 -0.654681 -0.378742 76 0 153
0.195968 0.280360 -0.140857 153 0 76
0.002471 -0.639132 -0.221307 153 0 76
-0.085317 -0.114380 0.517378 0 127 127
0.110732 -0.005632 0.204540 0 127 127
-0.007271 0.494978 0.444380 0 255 0
0.176177 -0.511128 -0.269320 153 0 76
0.167351 -0.312487 -0.071498 153 0 76
-0.184245 -0.639133 -0.266073 76 0 153
-0.177444 0.233031 -0.239483 153 0 76
-0.018490 -0.679633 -0.245825 76 0 153
-0.187220 -0.184292 -0.185999 153 0 76
0.199565 -0.404596 -0.179488 153 0 76
0.103415 0.025379 0.480103 0 127 127
0.039188 0.554374 0.570292 0 255 0
0.147371 -0.586548 -0.045964 153 0 76
-0.035810 0.453697 -0.332026 0 255 0
-0.124900 0.395212 -0.087530 0 255 0
0.198399 -0.133868 -0.162335 153 0 76
0.153228 0.593733 -0.302457 0 255 0
0.083998 -0.679633 -0.143784 76 0 153
-0.104166 0.634827 -0.279828 0 255 0
0.015979 -0.139728 0.213062 0 127 127
0.192408 -0.436632 -0.227581 153 0 76
-0.002824 0.030904 0.266231 0 127 127
0.150560 -0.430402 -0.305999 153 0 76
0.037104 0.375644 -0.288939 153 0 76
-0.110565 -0.679633 -0.299190 76 0 153
-0.037862 -0.356152 0.010621 153 0 76
0.178092 -0.405328 -0.265213 153 0 76
-0.106495 0.337352 -0.334625 153 0 76
0.169490 -0.053114 -0.074553 153 0 76
0.017680 0.572430 0.382051 0 255 0
-0.169426 -0.318027 -0.096607 153 0 76
-0.084274 0.634827 -0.014343 0 255 0
-0.025420 -0.296182 0.013530 153 0 76
0.188246 -0.330444 -0.243116 153 0 76
-0.029265 0.261087 -0.368076 153 0 76
0.135047 -0.309040 -0.321511 153 0 76
-0.115554 -0.200680 -0.328282 153 0 76
0.031710 0.303171 -0.369162 153 0 76
0.154911 0.428540 -0.074540 0 255 0
0.178093 -0.641081 -0.014698 76 0 153
0.094152 -0.639132 -0.107183 153 0 76
-0.137127 0.074275 -0.047495 153 0 76
-0.095948 0.029428 0.822985 0 127 127
0.197117 -0.194999 -0.147679 153 0 76
-0.056407 0.017076 0.008063 0 127 127
-0.002289 0.494978 0.193485 0 255 0
-0.011492 0.375644 -0.280438 153 0 76
-0.104815 -0.077241 0.268807 0 127 127
-0.144021 -0.674707 0.007494 76 0 153
-0.106679 -0.468615 -0.020656 153 0 76
-0.186411 -0.509252 -0.159909 153 0 76
-0.128217 0.505129 -0.187708 0 255 0
0.108755 -0.076122 0.865704 0 127 127
0.014779 0.572430 0.437738 0 255 0
-0.165055 0.432266 -0.129316 0 255 0
0.192144 -0.363857 -0.126587 153 0 76
0.072124 0.459266 -0.330824 0 255 0
-0.180265 -0.019507 -0.126198 153 0 76
0.090522 0.064925 0.904295 0 127 127
-0.178571 0.224139 -0.119875 153 0 76
0.006610 -0.131141 0.865594 76 153 0
0.191891 0.323173 -0.125643 153 0 76
0.097094 0.546155 -0.007587 0 255 0
-0.132131 0.375644 -0.114810 153 0 76
0.044534 0.463250 -0.015482 0 255 0
-0.127247 0.392589 -0.057470 0 255 0
0.158986 0.072969 -0.059552 153 0 76
0.054140 0.063150 0.869438 0 127 127
-0.178951 -0.232038 -0.233857 153 0 76
-0.048353 -0.154472 -0.062397 0 127 127
0.193107 0.371658 -0.130181 153 0 76
0.011534 -0.084686 0.015775 153 0 76
0.188984 0.006697 -0.240357 153 0 76
-0.128036 0.583290 -0.037925 0 255 0
-0.044549 -0.661427 -0.411155 76 0 153
0.121014 -0.052961 0.187849 0 127 127
0.005866 0.195290 -0.371419 153 0 76
0.173538 -0.679633 -0.113104 76 0 153
0.166940 -0.441841 -0.284242 153 0 76
0.124318 0.459140 -0.056686 0 255 0
0.057576 0.517288 0.214124 0 255 0
0.062421 0.036521 0.371796 0 127 127
0.197068 -0.225227 -0.147122 153 0 76
-0.197530 -0.679633 -0.114544 76 0 153
-0.047637 0.187604 -0.363153 153 0 76
0.024385 -0.120406 0.574606 0 127 127
-0.159437 -0.281852 -0.278140 153 0 76
-0.048961 0.063992 0.884501 0 127 127
0.140865 0.503147 -0.206119 0 255 0
0.004277 -0.119370 0.593699 0 127 127
-0.084763 0.043064 0.640408 0 127 127
-0.007072 0.524046 -0.289241 0 255 0
0.101259 0.007773 0.073499 0 127 127
0.152824 0.315450 -0.303733 153 0 76
0.175740 -0.236879 -0.270257 153 0 76
0.130733 0.437794 -0.030476 0 255 0
0.111748 -0.079465 0.671377 0 127 127
-0.016105 0.032448 0.295063 0 127 127
-0.034192 0.496583 0.432002 0 255 0
0.183261 -0.679633 -0.317786 76 0 153
-0.037164 0.427883 -0.002252 0 255 0
0.056987 0.514916 0.106186 0 255 0
0.191047 0.406649 -0.189799 0 255 0
-0.069905 -0.028489 -0.355303 153 0 76
-0.159167 -0.604137 -0.076627 153 0 76
0.125735 0.451447 -0.332107 0 255 0
0.059164 0.543725 0.347928 0 255 0
0.003680 -0.405939 -0.371228 153 0 76
0.225535 -0.665005 -0.083280 76 0 153
-0.090811 0.414653 -0.010522 0 255 0
0.054925 0.509857 0.450681 0 255 0
0.102148 -0.086147 0.940761 0 127 127
-0.185709 -0.629950 -0.203268 76 0 153
-0.035002 0.364340 -0.366539 153 0 76
-0.153295 -0.639133 -0.308948 76 0 153
0.101900 0.032874 0.564925 0 127 127
0.164827 0.583065 -0.288366 0 255 0
-0.095373 -0.080397 0.759653 0 127 127
0.000491 0.634827 -0.323427 0 255 0
0.157014 -0.236173 -0.056734 153 0 76
0.089890 0.352646 -0.351475 153 0 76
0.025006 0.463291 0.014386 0 255 0
-0.002681 -0.120567 -0.370671 153 0 76
0.004892 0.393046 -0.001398 0 255 0
-0.081550 0.141724 -0.349873 153 0 76
0.104636 0.435712 -0.324713 0 255 0
-0.145227 0.093961 -0.298434 153 0 76
0.142060 0.501141 -0.039772 0 255 0
0.197578 -0.643453 -0.193873 153 0 76
0.153487 -0.679633 -0.354669 76 0 153
0.196019 0.393141 -0.139881 0 255 0
-0.020023 0.572430 0.405206 0 255 0
-0.163175 0.375644 -0.131176 153 0 76
-0.161755 0.382481 -0.094579 153 0 76
-0.145596 -0.310479 -0.057245 153 0 76
0.117107 -0.003908 0.598208 0 127 127
0.128960 0.510420 -0.130811 0 255 0
-0.137662 -0.679633 -0.236881 76 0 153
-0.157713 0.174724 -0.280603 153 0 76
-0.007211 -0.439652 0.015123 153 0 76
-0.151176 0.393196 -0.101660 0 255 0
-0.045386 0.529795 0.092007 0 255 0
0.102710 -0.100506 0.652423 0 127 127
-0.096273 -0.005799 0.180300 0 127 127
0.197351 -0.251344 -0.204799 153 0 76
0.082038 0.487825 -0.047082 0 255 0
-0.023347 -0.112296 0.725585 0 127 127
0.090599 -0.163477 -0.351144 153 0 76
0.188193 -0.332719 -0.111839 153 0 76
-0.172353 -0.297898 -0.252268 153 0 76
0.112205 0.604459 -0.340066 0 255 0
0.183350 0.170874 -0.253937 153 0 76
-0.104611 -0.639133 0.010530 76 0 153
0.037369 0.572430 0.219523 0 255 0
-0.013599 0.372388 0.014153 153 0 76
0.152421 -0.679633 -0.131800 76 0 153
0.113534 0.634827 -0.119622 0 255 0
-0.166983 0.237942 -0.263786 153 0 76
-0.028247 0.634827 -0.239040 0 255 0
-0.030298 -0.639132 0.014391 153 0 76
0.149039 -0.193384 -0.307519 153 0 76
-0.179866 -0.063181 -0.230445 153 0 76
0.008192 0.419647 0.006209 0 255 0
0.151137 0.189769 -0.049731 153 0 76
-0.064827 -0.249725 -0.357671 153 0 76
0.138143 -0.373893 -0.318415 153 0 76
0.089583 -0.642691 0.045802 76 0 153
-0.168247 0.166882 -0.094077 153 0 76
-0.006149 -0.643453 -0.026685 76 0 153
-0.186142 -0.361154 -0.198329 153 0 76
-0.105696 -0.046730 0.767598 0 127 127
0.058126 0.519503 0.081494 0 255 0
0.149304 0.634827 -0.290512 0 255 0
-0.065308 0.045696 0.542245 0 127 127
0.214004 -0.679633 -0.156482 76 0 153
0.052342 0.535229 -0.262915 0 255 0
0.101104 0.087318 -0.008906 153 0 76
0.063064 0.042580 0.485000 0 127 127
-0.009316 0.049371 0.611482 0 127 127
-0.102552 -0.100154 0.011863 0 127 127
-0.187677 0.582300 -0.180857 0 255 0
-0.166473 0.375644 -0.108750 153 0 76
-0.187035 -0.061253 -0.167028 153 0 76
0.075152 -0.115635 0.663225 0 127 127
0.102118 0.634827 -0.257060 0 255 0
-0.057777 0.517289 -0.280089 0 255 0
-0.170631 -0.356430 -0.255961 153 0 76
0.014691 0.223967 -0.370651 153 0 76
-0.019502 0.357508 -0.369199 153 0 76
-0.068128 0.335701 -0.356132 153 0 76
-0.042181 -0.230916 -0.364615 153 0 76
-0.120126 0.357800 -0.030494 153 0 76
0.002159 0.634827 -0.099980 0 255 0
-0.143315 0.375644 -0.271302 153 0 76
-0.136442 -0.567894 -0.308341 153 0 76
-0.095544 0.064096 -0.012858 153 0 76
-0.150460 -0.332452 -0.290961 153 0 76
-0.012031 0.342680 0.014701 153 0 76
0.032674 0.279965 -0.369077 153 0 76
0.178227 -0.643453 -0.117275 76 0 153
-0.052900 0.449781 -0.338125 0 255 0
0.057775 -0.096325 1.002339 0 127 127
-0.009285 -0.639132 0.019389 153 0 76
0.102016 0.094815 -0.345821 153 0 76
-0.081867 0.032870 0.345199 0 127 127
-0.091296 -0.009429 -0.101702 0 127 127
0.048811 -0.504720 0.010842 153 0 76
-0.170040 -0.643453 -0.151898 153 0 76
-0.185953 0.284830 -0.154661 153 0 76
-0.106318 -0.029540 0.459557 0 127 127
-0.187048 0.220096 -0.187968 153 0 76
0.066945 -0.107051 0.005983 153 0 76
0.188925 -0.376897 -0.114571 153 0 76
0.120657 -0.039683 0.674473 0 127 127
0.023097 -0.639132 0.042905 76 0 153
0.035420 0.423380 0.013360 0 255 0
-0.157998 0.260255 -0.280195 153 0 76
0.031854 -0.679633 -0.277266 76 0 153
-0.121373 0.375644 -0.220117 153 0 76
-0.081675 -0.118437 0.573833 0 127 127
0.008843 0.494978 0.051533 0 255 0
0.027795 0.163741 -0.369504 153 0 76
-0.157664 -0.639133 -0.043785 76 0 153
-0.089065 -0.090004 0.836228 0 127 127
0.084697 -0.679633 -0.207359 76 0 153
0.186051 0.339797 -0.248144 153 0 76
0.079299 -0.643453 -0.154927 153 0 76
0.000686 -0.031109 -0.370966 153 0 76
0.001928 0.323338 -0.371074 153 0 76
-0.102148 -0.137751 -0.337669 153 0 76
-0.047695 -0.098030 0.992848 0 127 127
-0.068973 0.531427 -0.249231 0 255 0
-0.144563 0.110952 -0.055769 153 0 76
-0.057622 0.257788 0.005326 153 0 76
-0.198119 -0.661803 -0.301132 76 0 153
0.101708 -0.636531 -0.009187 153 0 76
-0.039856 0.073770 0.010086 153 0 76
0.093914 0.192752 -0.005553 153 0 76
-0.060112 0.064580 0.992780 0 127 127
-0.187081 -0.208237 -0.167554 153 0 76
-0.003934 -0.095395 0.860143 76 153 0
0.110133 0.498830 -0.271881 0 255 0
0.108685 0.419822 -0.327849 0 255 0
-0.048071 -0.418683 -0.363037 153 0 76
-0.033315 -0.679633 -0.108924 76 0 153
0.041307 -0.132111 0.355709 0 127 127
0.168754 0.461863 -0.283508 0 255 0
0.075352 -0.106000 0.843103 0 127 127
0.058662 -0.679633 -0.211531 76 0 153
-0.104146 0.579326 -0.337895 0 255 0
0.070606 -0.679633 -0.187295 76 0 153
-0.021943 0.048775 0.599890 0 127 127
0.007362 0.320338 0.016140 153 0 76
0.000374 0.505197 -0.372014 0 255 0
0.119823 -0.055497 0.570274 0 127 127
-0.150220 -0.643453 -0.239327 76 0 153
-0.187241 -0.119060 -0.169389 153 0 76
0.192297 -0.429117 -0.127158 153 0 76
-0.036744 -0.414082 0.010920 153 0 76
-0.128037 -0.643453 -0.112407 153 0 76
-0.169165 0.051601 -0.096047 153 0 76
-0.004083 0.572430 0.275288 0 255 0
-0.039931 0.118884 0.010066 153 0 76
0.025525 0.494978 0.493583 0 255 0
0.159059 0.618421 -0.060129 0 255 0
-0.180229 0.129072 -0.229088 153 0 76
-0.167470 0.116549 -0.092412 153 0 76
-0.068200 -0.365140 0.000947 153 0 76
-0.001438 0.545641 -0.098338 0 255 0
-0.045326 0.538352 0.112054 0 255 0
0.048266 -0.679633 -0.242562 76 0 153
-0.067454 -0.679633 -0.353378 76 0 153
0.156918 0.469353 -0.114524 0 255 0
-0.087296 -0.092226 0.858891 0 127 127
0.143726 -0.639132 -0.128884 153 0 76
0.002413 0.048179 -0.371117 153 0 76
0.032891 0.572430 0.269580 0 255 0
-0.074062 -0.639132 -0.193022 153 0 76
0.066659 0.277856 0.006060 153 0 76
0.071999 0.379962 -0.352372 153 0 76
0.044129 0.375644 -0.043458 153 0 76
0.166990 0.121150 -0.070983 153 0 76
-0.116433 0.516023 -0.167624 0 255 0
-0.106390 -0.050837 0.532131 0 127 127
0.036632 -0.128030 0.985861 76 153 0
0.099806 0.030776 0.449791 0 127 127
-0.066594 -0.059259 0.996386 0 127 127
-0.092796 -0.098945 0.527256 0 127 127
0.075894 0.632735 -0.356315 0 255 0
0.155226 -0.328889 -0.054181 153 0 76
0.104523 0.032867 0.659996 0 127 127
-0.049213 -0.142361 0.885384 76 153 0
0.127345 0.110309 -0.026882 153 0 76
0.052548 0.504394 0.436100 0 255 0
0.197709 -0.021862 -0.154457 153 0 76
-0.157166 0.626728 -0.281820 0 255 0
-0.094700 -0.087524 0.656369 0 127 127
0.133087 -0.596838 -0.323471 153 0 76
-0.093924 -0.078281 0.862996 0 127 127
-0.068246 0.375644 -0.158547 153 0 76
0.002622 0.395675 -0.022716 0 255 0
0.149372 -0.487319 -0.047965 153 0 76
-0.187866 -0.340969 -0.178618 153 0 76
0.057809 0.160024 0.008431 153 0 76
0.191674 0.392998 -0.197084 0 255 0
0.042958 -0.126466 0.461342 0 127 127
0.066580 -0.425539 -0.361233 153 0 76
0.189986 -0.314233 -0.236619 153 0 76
0.198318 -0.219603 -0.193738 153 0 76
0.084291 -0.281297 -0.001066 153 0 76
0.088477 -0.131321 0.367514 0 127 127
-0.106871 -0.016775 0.825572 0 127 127
-0.087005 -0.141053 -0.041294 0 127 127
0.049836 0.069676 0.993008 0 127 127
0.067860 -0.643453 -0.088942 76 0 153
-0.101258 -0.003268 0.469628 0 127 127
0.163710 -0.010311 -0.066298 153 0 76
0.043719 0.018163 0.998842 0 127 127
0.064621 -0.236267 -0.361757 153 0 76
0.065412 -0.352388 0.006394 153 0 76
0.186141 0.164419 -0.107202 153 0 76
0.196210 -0.322625 -0.213391 153 0 76
-0.174819 -0.336404 -0.246980 153 0 76
0.017504 0.375644 -0.341059 153 0 76
0.127720 0.150398 -0.027144 153 0 76
0.105776 0.047077 0.970561 0 127 127
0.116304 -0.643453 -0.262551 76 0 153
-0.092260 -0.002739 0.060792 0 127 127
-0.042513 -0.140313 0.963196 76 153 0
0.152548 -0.665873 -0.365312 76 0 153
-0.088025 -0.128084 0.163580 0 127 127
0.121341 -0.062025 0.101130 0 127 127
-0.104439 -0.057529 0.664508 0 127 127
0.175301 -0.639132 -0.298302 76 0 153
0.106137 -0.399471 -0.012031 153 0 76
0.177868 0.407966 -0.247832 0 255 0
-0.141190 0.392967 -0.079200 0 255 0
-0.107230 -0.045209 0.377204 0 127 127
0.161738 -0.345219 -0.063481 153 0 76
-0.187550 0.171406 -0.172915 153 0 76
0.120664 -0.051873 0.127549 0 127 127
-0.187238 0.091492 -0.185802 153 0 76
0.179210 -0.325282 -0.262815 153 0 76
-0.186294 0.070435 -0.196595 153 0 76
0.000105 0.634827 -0.234013 0 255 0
0.119351 -0.086715 0.050332 0 127 127
0.021851 -0.497990 0.014872 153 0 76
-0.109822 0.160927 -0.332296 153 0 76
-0.162501 0.286834 -0.273397 153 0 76
0.102627 -0.114977 0.385489 0 127 127
0.074443 -0.643453 -0.231696 76 0 153
0.080543 -0.137247 0.259422 0 127 127
0.087549 -0.001190 0.991874 0 127 127
-0.039551 0.507402 0.044712 0 255 0
-0.150039 0.365683 -0.063590 153 0 76
-0.123903 0.202100 -0.034272 153 0 76
0.002290 0.572430 0.429124 0 255 0
0.189606 -0.446752 -0.117114 153 0 76
0.170970 0.113572 -0.278485 153 0 76
0.037998 0.494978 0.555133 0 255 0
0.129615 0.634827 -0.049480 0 255 0
0.038456 -0.679633 -0.137963 76 0 153
-0.171085 0.139160 -0.100163 153 0 76
0.119216 -0.070058 0.370979 0 127 127
-0.015254 -0.651147 0.059656 76 0 153
0.120943 -0.197441 -0.022398 153 0 76
-0.036861 -0.150913 0.004103 0 127 127
-0.149783 -0.642544 -0.063224 153 0 76
0.163528 -0.501017 -0.289115 153 0 76
0.110443 0.028112 0.821125 0 127 127
-0.184256 0.561564 -0.139993 0 255 0
-0.035032 -0.639132 -0.123685 153 0 76
0.054324 0.508442 0.507104 0 255 0
-0.052131 0.014275 -0.044220 0 127 127
0.030315 -0.067664 1.003535 0 127 127
-0.144596 -0.402932 -0.299335 153 0 76
-0.013438 0.172425 0.014578 153 0 76
0.108512 -0.079506 0.813293 0 127 127
0.043768 0.392591 -0.001947 0 255 0
-0.041688 -0.679633 -0.275459 76 0 153
-0.085381 0.535661 -0.207036 0 255 0
-0.026694 0.572430 0.227283 0 255 0
-0.012049 -0.126532 0.459593 0 127 127
0.014901 0.375644 -0.060803 153 0 76
0.020025 -0.172571 -0.370184 153 0 76
0.024239 -0.648727 -0.415083 76 0 153
-0.014440 -0.258249 0.014490 153 0 76
-0.104327 -0.023004 0.332399 0 127 127
0.165672 -0.222675 -0.069099 153 0 76
0.054361 0.508529 0.184392 0 255 0
-0.160676 0.459411 -0.079959 0 255 0
-0.024173 -0.639132 -0.241180 76 0 153
0.228993 -0.679633 -0.226099 76 0 153
-0.044823 0.022993 0.118542 0 127 127
0.017806 0.634827 -0.182588 0 255 0
0.118784 -0.019511 0.433461 0 127 127
-0.105449 -0.083367 0.107007 0 127 127
-0.103302 -0.066820 0.576817 0 127 127
0.191170 -0.372261 -0.232203 153 0 76
-0.069488 -0.132613 0.345539 0 127 127
0.056241 0.163997 -0.364003 153 0 76
0.072352 0.027012 0.193981 0 127 127
0.062667 0.059750 0.805744 0 127 127
0.053904 -0.127008 0.451183 0 127 127
0.003225 -0.125419 0.480394 0 127 127
0.125599 0.099994 -0.329493 153 0 76
-0.167470 -0.679633 -0.091793 76 0 153
-0.038617 0.312574 0.010419 153 0 76
0.003922 0.304312 -0.371249 153 0 76
-0.170613 0.065301 -0.256001 153 0 76
0.024069 0.634827 -0.028749 0 255 0
0.181094 0.622835 -0.096133 0 255 0
0.077131 0.509809 -0.359254 0 255 0
0.063334 0.456725 -0.345484 0 255 0
0.030437 -0.121154 0.560661 0 127 127
-0.184982 0.536702 -0.147364 0 255 0
-0.187448 -0.009046 -0.183399 153 0 76
0.150259 -0.173899 -0.306299 153 0 76
0.073952 0.375644 -0.132575 153 0 76
-0.070099 -0.001127 -0.355213 153 0 76
-0.182955 0.312276 -0.136237 153 0 76
0.069967 -0.671917 0.051865 76 0 153
0.081872 0.228859 -0.355214 153 0 76
0.061260 0.300930 0.007506 153 0 76
0.120634 -0.036589 0.406252 0 127 127
-0.178568 0.278023 -0.235289 153 0 76
0.195377 -0.083768 -0.138651 153 0 76
-0.080648 0.045108 0.544568 0 127 127
-0.020912 0.543363 -0.098332 0 255 0
0.114186 -0.055303 0.984082 0 127 127
0.053437 0.218442 0.009603 153 0 76
-0.057541 -0.096778 -0.360500 153 0 76
-0.070150 -0.147837 0.061424 0 127 127
0.131848 -0.679633 -0.170305 76 0 153
-0.090461 -0.102184 0.558448 0 127 127
